ply
format ascii 1.0
comment Created by Open3D
element vertex 886
property double x
property double y
property double z
property double nx
property double ny
property double nz
end_header
-60.8526 27.2717 43.0481 0.680258 -0.659423 0.320017
-60.5125 27.6425 48.7492 0.188193 -0.395471 -0.898992
-56.4488 -28.9017 -0.412408 0.494116 -0.809114 -0.318094
-55.372 -27.2129 4.29149 0.969948 -0.226507 -0.0888538
-55.896 -28.53 7.36901 0.997871 0.00407394 -0.0650904
-55.674 -28.559 12.873 -0.498561 -0.866713 0.0156807
-55.3779 -28.7314 15.849 0.712789 0.699995 0.0440392
-55.4003 -27.3641 19.5268 0.912061 0.405544 -0.0606564
-56.3564 -28.2586 24.4232 0.967348 0.250364 -0.0394454
-55.302 -27.6613 27.4645 0.982107 -0.113191 -0.150511
-55.6108 -28.8034 32.6212 -0.165671 0.986137 0.00931861
-55.8745 -28.1765 36.3449 0.581745 0.813327 0.00851322
-56.6222 -28.34 39.7507 -0.176732 0.929934 0.322472
-55.2305 -28.6868 43.324 0.100746 -0.992664 -0.0668508
-55.1218 -27.0081 48.4267 -0.0919834 0.675768 -0.731353
-56.4512 -23.6498 0.139056 0.780962 0.585227 -0.218194
-56.6289 -24.8486 4.01354 0.843732 0.536739 0.0052836
-56.1808 -23.7203 7.99721 -0.497852 -0.859364 -0.116779
-56.2842 -24.2573 11.7508 -0.597047 -0.802178 -0.00674272
-55.207 -24.0726 15.112 0.92886 0.365394 -0.0608721
-56.6868 -24.2901 20.2723 0.961834 0.259915 -0.0855587
-56.7177 -24.2973 24.9055 0.896098 0.288724 -0.337115
-56.8193 -23.1448 27.0909 0.971114 0.10924 -0.212141
-56.0762 -23.1766 39.0752 0.223569 -0.281359 -0.933195
-55.6289 -24.0241 48.7324 -0.00197638 0.177068 -0.984197
-56.4713 -20.393 23.1792 0.953618 0.278749 -0.11363
-55.2651 -20.4575 27.2012 0.732459 0.551219 -0.399576
-55.9347 -19.1206 31.0885 0.175371 0.97905 -0.103469
-56.7495 -20.4485 35.8024 -0.336616 -0.940895 -0.0374862
-55.8274 -20.0921 39.0068 0.366584 0.617642 -0.695797
-55.858 -20.4601 47.8133 0.046565 0.0793791 0.995756
-56.4733 -15.0519 43.6764 -0.439877 -0.474744 0.762317
-55.8445 -16.512 47.5937 0.168343 0.221903 0.960427
-56.635 -11.0757 44.3968 -0.307336 -0.0195115 0.951401
-56.4356 -12.663 48.9724 0.274589 0.0226539 0.961295
-55.4378 -8.93203 44.7338 0.204884 0.0607325 -0.9769
-56.6934 -7.59114 47.0973 0.0837151 0.0414661 0.995627
-56.5725 -3.27292 44.6154 -0.615186 0.216329 0.758121
-55.3105 -4.40995 47.3805 -0.0682725 -0.0447296 0.996664
-56.8194 -0.252023 43.917 -0.529687 0.16223 0.832534
-55.6348 0.333683 48.6936 0.0247902 0.0649818 -0.997578
-56.8407 3.34568 43.0333 0.458497 -0.179464 -0.870387
-56.6951 3.94478 48.5576 -0.134492 0.0410832 -0.990063
-55.4419 7.93376 43.7998 -0.508449 0.0885091 0.856531
-55.0788 7.10056 47.8743 0.0406655 0.174082 0.983891
-55.5606 12.6155 43.5255 0.30998 0.204573 -0.928473
-55.5263 12.3849 48.4144 0.164801 -0.109992 0.980175
-55.6316 15.5489 44.5503 -0.14068 -0.480488 -0.865645
-55.91 16.4089 48.2044 0.0357594 -0.191022 0.980934
-55.2006 20.6176 32.0477 0.219419 -0.820096 -0.528487
-55.279 19.2365 36.8449 0.0909208 -0.851649 -0.516166
-56.9273 20.7294 39.7445 0.647599 0.320296 0.691394
-55.42 19.427 48.0713 -0.0661741 -0.0777322 0.994776
-56.4514 24.1437 -0.0814185 0.891186 -0.451557 0.0433933
-56.2316 24.4245 3.94745 0.861392 -0.506568 -0.0373238
-56.8859 24.635 8.85496 0.887541 -0.460489 -0.0148731
-56.1191 24.8443 12.9536 0.811947 -0.58278 0.03332
-55.8482 23.2857 16.5205 0.888474 -0.458913 -0.00353912
-55.8882 24.164 20.6451 0.158289 0.987053 0.0259138
-55.4668 23.456 23.1225 0.83005 0.551095 0.085511
-56.1191 23.762 28.4125 0.559914 0.826063 -0.0641642
-55.5695 24.1628 40.2469 0.107516 -0.744132 0.659324
-55.7526 24.0635 47.9474 0.132968 -0.264262 -0.955241
-55.6373 28.001 -0.543897 0.847865 -0.503848 0.165114
-56.3427 27.2232 3.22771 0.859245 -0.511095 0.021882
-56.5686 28.6819 8.53333 0.930977 -0.364713 -0.0162968
-55.5095 28.1044 12.0131 0.865227 -0.497689 -0.0607216
-55.8407 27.0157 16.5647 0.908158 0.415968 0.0471081
-56.0086 28.5008 19.3806 -0.108806 -0.993497 0.0335351
-55.9076 28.4918 23.6683 -0.0622504 -0.993619 0.094053
-55.7534 27.7305 28.2798 -0.0367718 -0.99777 -0.055711
-55.5514 27.8009 32.3705 0.476723 0.796978 -0.370892
-56.672 27.6598 36.1322 0.357473 -0.927014 -0.113393
-55.0105 28.1878 39.8865 0.198422 -0.978307 0.0595334
-55.9544 27.8629 43.425 0.0447644 -0.99666 0.0683021
-56.7719 27.9539 47.8517 -0.0795146 0.925065 0.371393
-52.5773 -27.3019 31.5013 0.84188 -0.455728 -0.289051
-52.1656 -27.0926 36.2715 0.530885 -0.65201 -0.541336
-51.0017 -27.2978 40.5433 -0.0104718 0.999374 0.0338
-52.0705 -27.313 43.8084 0.0142348 0.984778 -0.173233
-51.5648 -27.2459 47.3769 -0.1355 0.773435 -0.619223
-51.8824 -24.396 31.3699 0.947317 -0.295365 -0.123897
-52.5634 -24.2937 35.4287 0.570511 -0.0220026 -0.820995
-51.0562 -24.9647 48.9787 0.0156875 -0.252612 0.967441
-51.2673 -20.0658 32.9494 0.531511 0.792525 -0.298998
-51.1934 -19.2621 35.8236 0.50998 0.746646 -0.427129
-52.6897 -20.8079 39.2062 -0.465847 -0.676875 0.569935
-51.5408 -20.2652 47.0171 0.0894722 -0.151018 -0.984474
-52.0579 -15.7629 44.2201 0.227027 0.167009 -0.959462
-52.9596 -15.6767 47.4187 0.127856 0.102883 0.986442
-52.132 -11.954 43.7023 0.0741425 0.0257753 0.996915
-51.4331 -12.4724 47.0038 0.0826155 -0.00206127 0.996579
-51.4971 -7.99117 44.139 0.0441327 -0.121851 0.991567
-51.1264 -8.42218 48.1578 0.0631342 -0.0640866 0.995945
-52.843 -4.03964 44.0801 0.0133575 0.037395 0.999211
-52.8228 -3.0297 48.6388 -0.0271969 -0.179731 0.98334
-51.5017 -0.202809 44.8796 0.0292046 0.0730306 -0.996902
-51.6815 0.640838 48.7354 0.0171102 -0.179986 0.98352
-52.9545 3.3356 43.4413 0.0438782 -0.109149 0.993057
-51.8464 4.80393 47.877 0.0102865 -0.0439517 0.998981
-51.3608 7.81291 44.8744 -0.106823 0.125664 0.986305
-51.8834 7.10679 47.7545 -0.0287485 0.188542 0.981644
-52.0214 12.5056 43.537 0.113715 -0.00703552 0.993489
-51.6833 12.2988 48.613 -0.114653 -0.00177211 0.993404
-51.4445 16.9586 44.0422 -0.13034 0.662616 0.73753
-52.8823 15.1012 48.2068 0.0809694 -0.115847 0.989961
-52.1701 20.1696 32.3318 0.443944 -0.754982 -0.482613
-52.5332 20.8337 35.101 -0.565088 0.748454 0.347121
-51.403 19.7879 39.2575 0.668441 -0.442376 -0.597905
-51.1484 19.023 48.367 0.0866469 -0.120612 0.988911
-52.0483 24.5523 32.3544 0.869321 0.0651734 -0.489932
-52.8604 24.5876 36.733 -0.609901 0.53441 -0.585172
-51.5113 23.9023 48.3414 0.0472277 0.209299 0.976711
-51.659 28.2112 32.0172 0.662022 0.657041 -0.360588
-51.4279 27.7436 36.2267 0.354838 0.888637 -0.290541
-51.5278 27.6092 40.2165 0.0351208 0.954398 -0.296463
-52.1293 27.8807 44.6194 -0.132824 -0.987728 -0.0821704
-51.6062 28.8399 47.712 0.0447995 0.926636 0.373281
-47.3856 -27.5935 40.3594 0.0205329 0.980803 0.193918
-47.5298 -27.6334 43.7342 0.00235454 0.856805 -0.515636
-47.0931 -27.1284 48.4116 -0.0612904 -0.668052 0.741586
-47.7466 -23.8065 39.7273 0.0832202 0.82865 0.553546
-48.3054 -23.1766 47.1513 0.0614874 0.102763 0.992804
-47.2686 -20.419 43.9036 0.730083 -0.377256 0.569786
-48.7754 -20.2899 48.0395 0.135364 0.189359 0.972533
-47.5806 -15.9363 44.942 0.0711294 0.158367 0.984815
-47.9606 -16.7236 47.0316 0.107081 0.160603 0.981193
-48.1604 -12.3882 43.3087 0.0378024 -0.118544 0.992229
-47.6368 -11.3151 47.6631 -0.0790378 -0.0872685 0.993044
-47.5061 -8.7843 44.6692 0.124636 -0.0816112 0.98884
-48.5627 -7.07045 48.5928 0.0107594 -0.163098 0.986551
-47.1897 -3.54363 44.6577 0.263293 -0.0845272 0.961006
-48.9279 -3.67078 47.5499 0.195774 -0.157247 0.96796
-47.2926 0.367322 43.9072 0.171289 -0.0141832 0.985119
-48.6247 0.549683 48.414 0.147147 -0.126034 0.981052
-47.0844 4.55611 44.9827 0.15931 0.041094 0.986373
-47.7609 3.69538 48.5357 0.167381 0.0265675 0.985534
-48.9959 8.08456 44.6018 -0.0274858 -0.0091665 0.99958
-47.6169 7.7751 48.6802 0.241883 0.129147 0.961672
-48.8121 12.7762 43.5812 -0.146153 0.0902169 0.98514
-48.1578 12.0994 47.26 0.148998 -0.0345999 0.988232
-47.9497 15.918 43.2863 0.157135 -0.300861 -0.940633
-47.5506 16.0752 47.4948 0.045635 -0.118164 0.991945
-48.1407 20.2836 43.2242 0.532374 -0.0537388 -0.844802
-47.2234 20.2576 47.9698 0.0632363 -0.103942 0.992571
-48.5872 24.48 39.0044 0.769761 -0.566839 -0.293534
-48.5999 23.2618 47.9164 0.050359 0.0883576 0.994815
-48.4713 27.887 39.0804 0.15567 0.944741 -0.288499
-48.2302 28.1996 44.1517 -0.0461138 -0.941428 -0.334047
-47.7295 27.6167 47.5817 -0.0326789 0.799251 0.600108
-43.6851 -28.9063 40.5102 -0.032173 0.997694 0.0597652
-43.8085 -28.9529 43.7158 0.0561914 0.997449 -0.0440218
-43.1452 -27.7681 48.9271 -0.056114 0.521217 -0.851577
-44.2127 -24.6432 39.5269 0.146922 0.832439 -0.534284
-43.0393 -23.3875 47.4217 0.148704 -0.222832 0.963449
-43.8236 -19.9774 43.812 0.0366396 -0.434406 0.899972
-43.9206 -19.7158 48.5578 0.0151757 0.193613 0.980961
-43.6201 -15.3351 43.3344 0.0343116 0.129733 0.990955
-43.9782 -16.392 48.8084 -0.132678 0.0666363 0.988917
-44.2892 -12.5414 43.9643 -0.0648785 0.0335412 0.997329
-43.3539 -12.2093 47.8313 -0.0950355 0.0311513 0.994986
-44.4342 -7.83121 43.0537 0.0223843 -0.107735 0.993928
-43.6275 -8.29664 47.8397 0.179038 -0.00722361 0.983816
-43.5409 -4.62972 43.0296 0.199677 -0.0167105 0.979719
-43.9402 -3.83381 47.2481 -0.0636578 -0.191224 0.97948
-44.4962 -0.177089 44.4999 0.103049 -0.0534236 0.993241
-44.4824 0.573021 47.6884 0.0338123 0.0467478 -0.998334
-44.4591 3.96602 43.4559 -0.0141791 -0.0414312 0.999041
-44.5869 4.62657 47.7887 -0.0699086 0.0439546 -0.996585
-43.6375 7.55956 43.5237 -0.0691726 -0.0167877 0.997463
-44.9788 8.57255 47.6255 -0.0889155 -0.112069 0.989714
-44.525 11.4957 44.2787 -0.0656331 -0.113887 0.991323
-44.224 12.9097 48.5441 0.0640634 -0.0203051 0.997739
-44.0475 16.3398 44.9595 -0.150976 -0.0604363 0.986688
-44.9405 15.7918 48.3275 0.0055731 0.118196 0.992975
-43.2373 20.0067 44.9167 0.257605 0.342935 0.903347
-44.3908 20.8313 47.2948 -0.186438 -0.0879625 -0.978521
-44.0645 24.8882 40.6914 -0.226025 -0.813787 -0.535409
-44.629 23.7963 47.1781 0.118119 0.149338 0.981706
-43.5972 27.5562 39.7003 0.00938022 0.887523 0.460668
-44.4924 28.1824 43.0641 -0.208041 -0.951818 -0.225301
-43.3354 28.9347 47.3483 -0.0131418 -0.667227 -0.744739
-39.635 -27.293 40.1165 0.0129645 0.972509 -0.232504
-40.5008 -28.7048 43.1449 0.257787 -0.965351 0.04053
-40.1331 -27.3085 47.3775 -0.269734 0.797099 -0.540256
-39.3552 -24.4995 40.4721 -0.0474827 0.785296 -0.617297
-40.5279 -23.957 48.4289 0.237322 -0.13467 0.962051
-39.134 -20.7336 43.0733 0.0940647 0.425429 -0.90009
-40.15 -19.6498 47.696 -0.162813 -0.000378828 0.986657
-40.922 -15.95 44.1092 -0.0147347 0.0773786 0.996893
-39.3317 -15.4475 47.4881 -0.111178 -0.0946197 0.989286
-39.4215 -11.3971 44.1485 -0.0411501 0.107859 0.993314
-40.0129 -12.2934 47.5618 0.0193212 0.129115 0.991441
-40.3099 -8.44711 43.0291 -0.0966779 -0.0192808 0.995129
-39.9951 -7.98396 47.587 -0.303215 0.0504841 0.951584
-39.7617 -3.81689 43.1031 -0.0536623 -0.108394 0.992659
-40.1794 -3.84223 47.824 0.166534 0.1581 -0.973278
-40.6009 -0.111724 44.2702 -0.113676 -0.0530548 0.9921
-39.5872 -0.418197 48.7797 -0.143715 -0.157431 0.977017
-39.9412 4.97292 44.7558 0.0671304 -0.188394 0.979797
-39.2847 4.85885 48.0303 -0.090269 -0.0847372 0.992306
-40.033 8.19871 44.9835 -0.0237445 -0.044275 0.998737
-39.1321 7.62282 48.5772 0.0838467 -0.0119382 -0.996407
-39.0983 12.2577 43.403 0.00249235 0.0944249 0.995529
-39.4026 11.4687 48.0216 -0.14059 -0.0385472 0.989317
-40.5824 15.0283 44.7474 0.0156258 0.0314035 0.999385
-40.5154 15.2169 47.0475 0.0716329 -0.0165977 0.997293
-40.5942 20.3516 43.7932 0.113151 0.42741 0.896949
-39.0443 19.4666 48.4114 0.0292023 0.0240379 0.999284
-39.53 23.8026 39.7549 0.0662164 0.585902 0.807672
-40.7741 23.3509 48.1425 -0.0501989 0.0145085 0.998634
-39.3046 27.5326 39.2666 0.0587181 0.944158 -0.32422
-40.388 28.0651 43.1987 -0.0287467 0.99941 0.01877
-39.1029 28.1111 48.1919 0.0570114 -0.643902 -0.762981
-35.2757 -27.0845 40.2839 -0.0303058 -0.559161 -0.828505
-36.5185 -27.784 44.1286 -0.059441 0.914023 -0.401285
-35.9849 -28.5389 47.7978 -0.00581944 0.871078 -0.49111
-36.4399 -24.845 40.1003 -0.0839579 0.471377 -0.877926
-36.0387 -24.7609 47.2651 0.157291 0.325827 -0.932254
-36.9185 -20.904 44.2939 -0.00269467 0.412089 -0.91114
-35.9031 -20.4451 47.187 0.075927 0.0190763 0.996931
-36.8462 -15.7323 44.7499 -0.0848208 -0.146389 0.985584
-36.7222 -15.3578 47.436 0.0960431 -0.114786 0.988737
-35.151 -12.6007 43.7364 0.00773153 -0.0465466 0.998886
-36.1802 -11.6467 48.017 0.113143 -0.0881854 -0.989658
-36.574 -7.41947 44.5626 -0.207488 -0.0311225 0.977742
-35.611 -7.57336 47.4677 -0.123479 -0.0448824 0.991332
-36.9545 -3.27291 43.5894 -0.00633072 0.000545163 0.99998
-36.9516 -3.52329 48.6709 -0.138196 0.125007 0.982484
-35.1068 0.104086 44.6448 0.15322 -0.0527953 0.986781
-36.9645 -0.812065 48.1211 -0.0812513 -0.00975194 -0.996646
-35.4649 4.51007 43.1322 0.198495 -0.0887702 0.976074
-36.6255 4.8613 47.7439 -0.109502 0.134358 -0.984864
-35.0774 8.57644 44.4967 0.166907 0.0586492 0.984227
-36.7173 8.55916 48.9411 -0.0970342 -0.0774732 0.992261
-36.2995 12.3769 43.9978 -0.0377258 0.0805526 0.996036
-35.8217 11.1527 48.751 -0.0277444 0.237071 0.971096
-35.8582 16.7217 43.211 -0.0180834 -0.0663593 0.997632
-35.0555 16.3971 48.6522 -0.00339574 0.0464545 0.998915
-35.77 19.0589 44.3069 -0.277309 0.295655 0.91416
-35.285 19.8785 47.4782 -0.0863905 -0.25002 0.964379
-36.0506 24.5038 39.9624 -0.106278 0.441509 0.89094
-35.5399 23.9858 47.228 -0.43245 -0.309376 -0.84692
-35.1756 27.2805 40.109 0.0214871 0.981054 -0.19254
-35.5334 28.3991 43.9241 0.000387928 0.996994 -0.0774807
-35.4139 28.1998 48.1985 0.0308082 0.780298 0.624649
-31.3745 -27.9985 40.907 0.0960555 0.960936 0.259566
-31.3911 -28.5387 44.8088 0.260012 0.95136 -0.16525
-31.59 -27.8288 47.4896 0.00132409 0.626681 -0.779275
-31.6297 -23.0973 40.83 0.0694223 -0.711976 0.698764
-31.8232 -24.3175 48.5406 -0.117897 -0.227177 0.966691
-31.9597 -19.5924 43.5503 -0.0837122 -0.382726 0.920061
-31.7405 -20.0112 47.1919 -0.00948402 -0.00999556 0.999905
-31.0834 -16.0446 44.9799 0.0934952 -0.00743685 0.995592
-32.8113 -16.4487 48.9745 0.01434 -0.0179742 0.999736
-32.9176 -11.4818 44.5117 -0.0204919 0.0657245 0.997627
-32.0749 -11.7705 48.0599 0.0180553 -0.041449 0.998977
-32.4704 -8.85816 44.2234 -0.191018 0.0868957 0.977733
-32.5392 -8.54812 48.0929 0.178401 0.0966466 0.9792
-32.5878 -3.06542 43.2901 0.121289 0.150993 0.981066
-31.8535 -4.3925 47.5758 -0.0859407 0.00438345 -0.996291
-31.7536 0.963754 44.2349 0.140957 0.145511 0.979264
-32.3807 0.26163 48.4947 -0.00392423 -0.204475 -0.978864
-32.9275 3.69503 43.5669 0.145774 -0.0747677 0.986489
-32.7306 3.66208 48.1426 0.110476 -0.156448 0.981488
-31.9629 7.81061 44.8405 0.132235 -0.0619742 0.989279
-31.6334 8.91715 48.7327 0.0852548 -0.0133656 0.99627
-31.6302 11.1574 44.8528 0.164644 -0.0351813 0.985725
-31.0145 11.1775 48.0367 0.0128907 0.110053 0.993842
-31.9723 15.3216 43.9064 -0.0443211 -0.0100025 0.998967
-32.9193 15.3012 47.625 0.0932049 0.0629568 0.993655
-31.0997 19.3333 43.9207 -0.138486 -0.089543 -0.986308
-31.8344 20.6171 47.4508 -0.0562627 -0.206318 0.976866
-32.5793 24.2209 40.5532 -0.0696972 0.501737 0.862208
-32.4478 24.8633 47.6253 -0.150872 0.513597 0.844663
-32.6094 27.4404 40.9852 0.0484749 0.982 -0.182557
-31.4454 28.0964 44.2085 0.078369 -0.996922 -0.00221248
-32.0014 27.7198 48.5908 -0.0753972 0.778482 0.623122
-28.2657 -28.5935 40.6366 -0.0279639 0.963301 0.266963
-27.8211 -27.0463 43.3007 -0.0957855 0.98303 -0.156454
-28.3677 -28.0207 47.3057 -0.0156281 -0.583873 0.811694
-28.1018 -24.1083 39.161 -0.0380502 0.295334 -0.954636
-28.9366 -23.0276 47.8469 -0.013268 0.00835845 0.999877
-28.3154 -19.9295 44.3025 0.165697 -0.513414 0.841992
-27.7447 -19.3919 47.8447 0.178016 0.128344 0.975622
-27.1673 -16.9108 43.8632 0.31385 -0.110081 0.94307
-27.6914 -15.6333 47.3472 0.141051 0.0290896 0.989575
-28.8436 -11.9121 44.1231 0.0271589 -0.0241393 0.99934
-28.4834 -12.3466 48.6737 0.12695 -0.0273966 0.991531
-27.0034 -8.28305 43.2007 -0.0759188 0.0498369 -0.995868
-28.884 -7.64586 47.2235 0.0401819 -0.0417387 0.99832
-28.2821 -3.45872 43.5672 0.00623051 0.0982185 0.995145
-28.8453 -4.47124 48.9064 0.0333751 0.0859339 0.995742
-28.6708 0.863688 44.0829 0.0291624 0.0204446 0.999366
-27.8436 0.142681 48.7001 -0.0351517 0.0581615 0.997688
-28.1451 3.52988 43.5034 -0.13949 0.0653464 0.988065
-28.4733 4.3048 48.112 0.144455 -0.078437 0.986398
-27.5696 8.06591 43.318 0.000416562 -0.235111 0.971968
-27.8331 7.54342 47.4254 -0.0411486 0.0782613 0.996083
-27.1257 11.7189 44.3896 0.147091 0.125334 0.98115
-27.859 11.5079 47.6316 -0.070784 0.207006 0.975776
-27.5694 15.8127 43.9181 0.108816 0.0542754 0.992579
-27.8437 15.5541 47.3004 0.171448 0.0389251 0.984424
-27.3333 19.145 44.2933 0.206355 0.00506816 0.978464
-27.9007 20.6281 48.9792 0.0900067 -0.147618 0.98494
-28.23 23.9133 39.5489 0.0864812 0.172934 0.981129
-27.112 24.4323 48.7994 -0.0335472 0.0387232 -0.998687
-28.781 27.716 40.8135 -0.0109613 0.989688 -0.142817
-27.1648 27.3962 44.2259 0.0175662 0.989474 -0.14364
-28.3857 27.2044 47.5903 0.0292999 0.741535 0.670274
-24.8037 -28.5121 39.3359 0.00602575 -0.654488 -0.756048
-24.4637 -28.8071 43.0938 -0.28468 0.958477 -0.0167141
-23.1204 -27.8225 48.4667 0.0248649 0.0676334 -0.9974
-24.667 -23.1925 40.622 -0.17981 -0.434743 0.882421
-23.5389 -23.5747 47.8787 -0.182866 -0.279614 0.942537
-23.9009 -20.9685 43.4032 0.136865 0.36299 -0.921687
-24.3794 -20.9264 48.4638 -0.0379926 0.251056 0.967227
-24.0135 -15.4797 43.3623 -0.0543475 0.0566241 0.996915
-23.6887 -15.8237 48.0951 -0.108419 0.0161264 0.993974
-24.6837 -11.7504 43.5084 0.0477756 0.149705 0.987576
-23.2174 -11.8422 48.45 -0.111657 -0.0981618 0.988887
-23.4055 -7.9061 44.0844 0.0368053 -0.169337 0.984871
-23.6192 -7.34381 47.2652 -0.0967178 -0.103171 0.98995
-24.7877 -3.61397 43.3385 -0.0287143 -0.0699202 0.997139
-23.724 -4.53377 48.8466 -0.0404991 0.0919751 0.994937
-23.5555 0.207851 43.2399 -0.0517186 -0.106576 0.992959
-24.4596 -0.346468 48.6501 0.0338722 0.0848263 0.99582
-23.7015 4.64415 43.2467 0.0585175 0.0842565 0.994724
-23.9837 4.26811 48.7486 0.0229175 0.174499 -0.984391
-24.4224 8.73457 43.9748 -0.109678 -0.0310489 0.993482
-24.5884 8.56716 47.8662 0.170526 -0.0383517 0.984607
-23.3673 12.3726 43.9498 -0.0560137 0.1368 0.989014
-23.8133 11.7874 48.9506 -0.0354984 0.195076 0.980145
-24.3485 16.8625 43.0877 -0.0335574 0.285481 0.957797
-23.8578 15.3856 47.9315 -0.112496 0.147934 0.982578
-23.9811 20.5358 43.1445 0.14858 -0.466156 -0.872137
-24.6726 20.4909 48.3279 -0.0411228 -0.226679 0.973101
-24.5856 24.5424 40.4174 0.246347 0.0858594 -0.965371
-24.2273 24.2844 48.4883 -0.113968 -0.00408316 -0.993476
-24.4464 27.0742 39.7506 0.0455966 0.976216 -0.211953
-23.2263 28.6982 44.8343 -0.0269473 0.992519 0.119082
-24.033 27.3155 47.1248 -0.0116994 0.710196 0.703906
-19.8248 -27.1121 39.8323 0.0757456 0.987737 0.136522
-20.1368 -27.9706 43.1601 0.0843375 0.972497 -0.217112
-20.1638 -28.5445 48.7529 0.0817037 0.619863 -0.780445
-20.4523 -24.4394 40.8056 0.00384403 0.767383 -0.641177
-19.729 -23.4546 47.1736 0.16349 0.213496 -0.963167
-20.8319 -20.874 43.877 -0.118395 -0.384829 0.915363
-19.0004 -20.8766 48.0039 -0.103115 0.211316 0.971963
-20.5275 -15.6915 43.9218 -0.0173964 0.0463055 0.998776
-19.1002 -16.029 47.9094 -0.0251045 0.0850919 0.996057
-20.7353 -12.5502 44.9478 -0.0585553 0.114424 0.991705
-20.6793 -11.1651 47.3439 -0.021991 0.24363 -0.969619
-20.5284 -7.60111 43.1548 -0.186821 0.0928651 0.977995
-19.0675 -7.40637 48.1169 0.0464195 -0.0793367 0.995766
-19.3604 -3.33737 43.0386 -0.0573313 -0.0523722 -0.996981
-20.047 -4.26473 48.4248 -0.0625667 0.149054 0.986848
-20.8523 -0.122371 43.786 -0.0241218 -0.0236277 0.99943
-19.6593 0.997467 47.0284 0.039505 0.135329 0.990013
-19.6308 4.92767 44.4186 -0.0751661 -0.245698 0.966428
-19.6061 4.11962 47.5484 -0.0555509 -0.114632 0.991854
-20.507 7.86985 44.2511 0.0506265 -0.046168 -0.99765
-20.8488 7.49266 47.759 0.0651375 -0.0727091 0.995224
-19.3575 12.9439 44.9711 0.0532353 -0.0201976 0.998378
-20.6191 11.3961 48.9147 -0.11039 0.175866 0.978205
-20.8905 16.2998 44.6719 0.0734429 -0.217434 -0.973308
-19.0616 15.1009 47.8115 -0.147224 0.160998 0.975912
-20.7821 19.4214 44.766 -0.283274 0.0626777 0.956989
-19.8519 19.9612 47.3361 -0.126863 -0.142724 0.981598
-20.2954 23.0787 40.2761 0.256182 -0.221187 -0.940982
-20.3387 24.1936 47.5994 -0.0811973 0.0179063 0.996537
-20.0063 27.6429 39.558 -0.0831821 0.918955 -0.38549
-19.7806 28.9999 44.025 -0.0736736 0.996806 -0.0308137
-20.4024 27.4049 47.4196 0.0119575 0.822508 0.568628
-15.3995 -27.4903 40.3834 0.0472673 0.785086 -0.617581
-15.4366 -28.0807 43.9399 -0.0482329 0.98403 0.171343
-15.2707 -27.4134 47.4112 -0.00919262 0.737743 -0.675019
-15.5419 -24.8803 39.175 0.198298 0.910982 -0.361648
-15.2408 -23.7586 48.3995 -0.0322642 0.0333887 0.998922
-15.1898 -19.1402 43.3577 0.145028 -0.448654 0.88186
-16.8675 -19.8689 48.72 0.0427088 0.166839 0.985059
-15.839 -15.5622 43.944 0.100405 0.0710851 0.992404
-15.1839 -16.7383 47.0671 0.0109176 0.276819 0.96086
-16.412 -11.242 43.7877 0.00546211 0.0568446 0.998368
-16.3511 -12.9085 47.2275 0.134699 0.0827035 0.987429
-15.8571 -7.33229 44.0178 0.111655 -0.0365104 0.993076
-15.2306 -7.40251 47.8715 -0.155105 -0.139566 0.97799
-15.1616 -4.35294 44.5881 0.0595726 -0.152096 0.986569
-16.8292 -4.7739 48.9974 0.0350496 -0.0179123 0.999225
-16.0617 -0.156062 44.9922 -0.13496 0.0102901 0.990798
-16.3967 0.120545 48.1942 0.0539477 -0.0450555 -0.997527
-15.7208 4.17375 43.3742 -0.123792 -0.0966014 0.987595
-15.8125 4.56543 47.3481 -0.0152206 0.0041899 -0.999875
-15.3174 7.49553 43.5 0.0992966 -0.110095 0.988949
-15.1359 7.69881 48.5103 -0.0713192 -0.105157 0.991895
-16.6294 12.7416 44.846 -0.134816 -0.0914554 0.986641
-15.3967 12.9528 48.9346 -0.059303 0.0317498 -0.997735
-16.3769 15.7114 44.3625 0.214187 -0.11373 -0.970149
-16.335 15.6922 48.0456 0.0123952 0.177631 0.984019
-15.998 19.8346 44.3838 0.425248 -0.0073812 -0.905047
-16.4395 19.1769 48.2269 0.20712 0.106786 -0.97247
-15.8753 23.7109 40.1254 -0.126422 -0.292887 -0.947752
-16.5955 24.8043 48.414 0.00723846 0.304694 0.952423
-16.6689 28.0366 40.9339 -0.0738381 0.994253 -0.0775215
-16.2259 28.6432 43.9085 -0.00354851 0.99898 -0.0450102
-15.7549 27.1684 47.3795 0.0841646 0.430899 0.898467
-11.1252 -28.511 39.4827 -0.0575292 0.971326 0.230688
-12.1601 -28.4796 44.1436 -0.139767 0.977013 -0.160969
-11.7723 -27.7279 47.3273 -0.281074 0.799473 -0.530886
-11.2123 -23.8125 40.4085 0.0355539 -0.703228 0.710075
-12.4749 -23.9642 48.8931 0.169184 -0.0692467 0.983149
-11.295 -20.7168 43.4817 -0.172657 0.265471 -0.948533
-12.843 -19.0089 47.1745 0.113058 0.134143 0.984491
-11.1417 -15.6663 44.2596 -0.0838456 0.0146338 0.996371
-11.2698 -16.8403 48.1042 -0.00829367 0.150225 0.988617
-11.2556 -11.8211 43.1404 -0.0268695 0.183097 0.982728
-12.3293 -12.1643 47.516 -0.0149107 0.118719 0.992816
-12.6839 -8.3056 44.7057 0.100832 -0.139529 0.985071
-12.4303 -7.62324 47.3772 -0.0238243 0.0970352 -0.994996
-12.3415 -4.48488 44.2237 -0.0900575 -0.159094 0.983147
-11.6088 -3.12538 48.3192 0.00763234 -0.110183 0.993882
-11.8119 -0.524368 44.101 -0.0588453 -0.0332829 0.997712
-11.9806 0.736122 47.7858 -0.000844584 0.034028 0.999421
-12.8052 4.43487 43.3871 0.0493163 -0.00348623 0.998777
-12.7738 3.15235 47.6595 0.116003 0.178838 0.977016
-11.408 7.79362 44.0654 -0.0579169 -0.0969736 0.9936
-11.6954 8.31583 47.5265 -0.134456 -0.0906246 0.986767
-12.4569 11.8146 44.6579 -0.0699275 -0.175947 0.981913
-12.4184 12.8569 48.6654 0.0178683 -0.0783646 0.996765
-11.6314 16.3487 43.9695 -0.164737 0.00472586 -0.986326
-12.1328 16.1795 48.6141 0.102223 -0.0812945 0.991434
-12.6388 19.9234 44.9333 0.0220741 0.254541 0.96681
-12.2964 20.1341 48.3779 0.0713242 -0.0620488 0.995521
-11.3559 24.3743 39.8064 0.0422912 -0.405478 -0.913126
-11.6923 23.398 48.8713 0.0357884 -0.013018 0.999275
-11.532 27.8283 40.3229 0.0595029 0.998068 0.0178586
-11.44 28.7762 43.8646 -0.0466351 0.98516 0.165179
-11.4852 27.4311 47.9711 0.0139021 -0.669482 -0.742698
-7.58128 -28.3859 39.1511 0.0175716 0.947291 0.319893
-8.81175 -27.1279 44.2562 0.274735 -0.900541 0.336967
-8.51314 -28.2917 48.7148 -0.0862243 0.835603 -0.542525
-7.44603 -24.721 40.9864 -0.245521 0.898241 -0.364531
-8.13955 -23.9142 48.4532 0.100045 -0.0925557 0.990669
-7.37092 -20.6938 44.2121 0.00698408 -0.41409 0.910209
-8.58311 -20.3721 47.5536 0.0593837 -0.0733036 0.99554
-8.77876 -16.3064 44.5603 0.00245819 0.160904 -0.986967
-8.51005 -15.0956 48.4341 -0.0502891 -0.0624994 0.996777
-7.21775 -11.4945 44.4036 0.111152 0.0354918 0.993169
-8.60294 -11.3996 47.784 0.0598632 -0.0346028 0.997607
-8.62859 -7.58374 43.337 -0.0155206 0.0886213 0.995944
-7.61086 -8.56207 48.6704 0.0449036 0.0699439 0.99654
-8.67064 -3.48757 43.8227 -0.0661047 0.0846574 0.994215
-7.42759 -4.94455 47.9545 -0.0838765 0.0376174 0.995766
-7.79812 -0.317234 44.6219 -0.0398022 -0.00220589 0.999205
-7.49745 0.422631 47.8441 -0.066146 0.12831 0.989526
-7.30312 3.26967 43.2222 0.109524 -0.0812655 0.990657
-7.58578 3.85727 48.1952 -0.0546458 -0.0541465 0.997037
-8.03613 7.22801 44.6497 -0.120381 0.0574328 0.991065
-7.98488 8.84058 47.9829 0.156357 -0.152344 0.975881
-8.68878 11.5273 44.03 0.000979607 -0.144005 0.989576
-7.10745 11.109 47.1482 0.0812292 -0.0296347 0.996255
-8.05805 16.6533 44.6316 0.0762017 -0.104893 0.99156
-7.46068 15.2129 48.3202 0.0968058 0.0628614 0.993316
-7.21404 19.7133 44.235 -0.293057 -0.288239 -0.911612
-8.08937 20.7188 47.0334 0.0870454 0.0261124 0.995862
-7.16682 23.5042 39.4827 0.0931006 0.4193 0.903061
-8.51313 23.3297 48.74 0.135061 0.060835 0.988968
-7.4202 28.7816 39.3024 0.0203487 0.93864 -0.344297
-7.09769 27.6304 44.4865 -0.1386 0.900347 0.41251
-8.36964 27.8289 47.4519 0.0250198 -0.671977 -0.740149
-3.20222 -27.0099 39.0574 0.0892142 0.453824 -0.886614
-4.00956 -27.218 43.402 -0.0267461 0.98146 -0.18979
-3.88716 -27.0011 48.8715 -0.0468592 0.14466 -0.988371
-3.76886 -24.4912 40.7705 0.0307214 0.743277 -0.668278
-3.64019 -23.0103 47.9739 -0.00783464 -0.0320309 -0.999456
-3.55966 -20.3893 43.5215 -0.103901 0.39322 -0.913555
-3.92722 -20.4671 48.9862 -0.000145849 0.142184 0.98984
-3.02887 -15.6088 44.9538 0.122401 -0.0283924 0.992075
-4.55374 -16.3083 47.1072 -0.00694932 -0.00966167 0.999929
-4.00578 -12.5801 44.6175 -0.112703 0.087609 0.989759
-3.34989 -11.8461 47.5077 -0.00645072 -0.13127 -0.991326
-4.96261 -7.63936 43.6239 -0.0575531 -0.0517803 0.996999
-4.64703 -8.16554 47.5489 0.0785076 -0.0414152 0.996053
-3.08092 -3.41776 44.2537 -0.0680472 0.0131901 0.997595
-3.34297 -3.83124 48.0634 -0.0860095 0.0135871 0.996202
-3.42457 -0.914301 44.9199 0.0584545 -0.122204 0.990782
-4.98987 -0.542625 47.3329 -0.00271448 -0.00341694 -0.99999
-3.97383 3.97722 43.785 0.116488 -0.0757287 0.990301
-3.09511 4.43663 47.2899 0.0961234 -0.0795601 0.992185
-3.19632 8.61259 44.0021 0.0494175 -0.0430358 0.997851
-4.78398 8.09097 47.4699 -0.0734155 -0.0783977 0.994215
-4.10221 12.8309 43.3682 0.0696029 0.0204077 0.997366
-3.71855 12.7036 47.7299 -0.230456 -0.0101024 0.97303
-4.22175 16.9206 44.682 -0.15734 -0.0854781 0.983838
-3.24206 15.1795 48.4066 -0.132858 0.134691 0.981941
-4.39063 20.7309 44.6413 -0.210574 -0.465142 -0.859826
-3.04046 19.636 47.8623 -0.0528629 -0.172454 0.983598
-4.19271 24.2625 39.9622 0.0771153 0.452743 0.8883
-4.87044 23.7761 48.8104 0.158864 -0.00599574 0.987282
-3.40769 28.1557 39.7592 0.0149439 0.887211 -0.461121
-3.55894 27.461 44.766 0.171874 -0.924621 -0.339904
-3.76793 28.2494 47.4303 -0.0770735 0.752586 0.653968
0.894305 -27.8251 39.6852 0.130137 0.0115068 -0.991429
0.612679 -27.591 44.0955 0.288822 0.953548 0.0855995
0.700837 -27.0846 48.3531 -0.195594 -0.83267 0.518077
-0.970889 -23.8578 40.2788 -0.154426 -0.528162 0.834984
-0.608531 -24.2318 47.1945 0.207892 0.0292132 0.977715
0.0134339 -19.2817 43.1917 0.245755 -0.436942 0.865267
0.563469 -19.4641 47.7588 -0.0493032 0.0994596 0.993819
-0.146536 -16.9929 44.6507 0.0357812 0.0194835 0.99917
0.303611 -15.243 48.778 -0.0214588 0.0641394 0.99771
0.423737 -12.0028 43.897 0.00256103 0.0465528 0.998913
-0.166622 -12.8261 47.2656 -0.168513 -0.0271881 0.985324
-0.83801 -7.98468 43.191 -0.106358 -0.0427964 0.993406
0.78666 -7.2458 47.3218 -0.13033 -0.0397709 0.990673
-0.565696 -3.97393 44.214 0.0565898 -0.167988 0.984163
-0.846661 -3.23025 47.8672 0.0426534 -0.127075 0.990976
0.28026 0.458028 44.3036 0.0271549 0.0922608 0.995365
0.641236 0.776826 48.1448 -0.0785705 -0.0424256 0.996005
0.537096 4.35178 43.2224 0.0658912 0.141637 0.987723
-0.00115237 4.46436 47.7179 -0.089187 -0.0315441 0.995515
0.878999 7.32741 44.0892 -0.0052724 -0.103535 0.994612
0.177511 7.28669 48.0995 -0.173206 -0.108687 0.97887
-0.951622 11.6259 44.8847 -0.0226836 -0.149248 0.98854
0.063189 11.1827 47.2148 0.023456 0.0128455 0.999642
-0.698187 15.802 44.8656 -0.0460681 0.0801606 0.995717
0.220901 16.3471 48.6951 0.00816039 -0.0388587 0.999211
0.539036 19.208 43.9453 0.0254578 0.42016 0.907093
-0.271306 19.4772 47.0148 -0.102236 -0.0382805 0.994023
-0.627964 23.581 39.255 0.0273272 0.395656 0.917992
0.500501 24.187 48.077 -0.144386 0.18335 0.972387
-0.177395 28.3805 40.9302 -0.15632 0.949118 -0.273383
-0.0124905 28.8392 44.1463 -0.0610835 0.996712 0.0532401
0.579589 27.8239 48.3659 0.0796298 0.443687 0.892637
4.39563 -27.0292 40.126 -0.0380456 0.936331 0.34905
4.14331 -27.9711 44.8547 -0.0839087 0.954466 0.286276
3.51533 -27.8584 47.0227 0.093713 0.927515 -0.361848
3.63082 -23.6545 40.4572 0.0604984 0.155516 -0.985979
4.92094 -24.2315 48.0627 -0.0959128 -0.253779 0.962495
4.49003 -20.1065 43.6052 -0.0424267 -0.511563 0.858198
3.86202 -19.0604 48.603 0.0876889 0.040053 0.995342
4.11915 -15.8065 44.6131 -0.000331695 0.047878 0.998853
4.49539 -15.7375 48.5215 0.0520216 0.12547 -0.990733
4.05304 -12.5766 44.6411 -0.0272468 -0.0512815 -0.998312
4.1566 -12.7598 48.0202 0.0878595 0.0717421 0.993546
4.67229 -7.73959 43.996 0.00878489 0.0798551 0.996768
4.69057 -7.03739 48.2152 -0.0947796 -0.0341313 0.994913
4.59773 -3.52873 44.4012 0.051337 -0.0973929 0.993921
4.74409 -4.76798 47.4208 0.120251 0.143848 -0.982266
4.55164 -0.277683 44.3167 0.0501192 0.0362707 0.998084
4.56533 -0.00033786 47.9344 -0.0201745 0.0449467 0.998786
3.46305 4.42191 44.2462 0.0393832 0.130409 0.990678
4.63416 4.14549 48.3963 -0.190965 -0.0153974 0.981476
3.72571 8.31251 44.1796 -0.151616 -0.217036 0.964317
4.78565 8.69427 48.3549 -0.160963 -0.212798 0.963747
3.43543 11.9693 44.3444 -0.039158 -0.111109 0.993036
3.3125 12.6823 48.9805 -0.0371958 -0.105477 0.993726
4.0508 16.4542 43.9356 -0.0667584 -0.23052 -0.970775
3.84248 15.1016 48.0476 0.0253524 0.160423 0.986723
3.54989 19.7924 44.4771 0.0267563 -0.106703 -0.993931
3.9931 19.4408 48.5425 -0.0507808 0.128701 -0.990382
4.06586 23.0282 39.4864 0.173737 -0.150409 -0.973238
4.29187 23.9715 48.8883 -0.072524 0.141909 0.987219
4.24783 27.6616 40.3425 -0.00829083 0.937652 -0.347477
3.01859 28.8297 44.0474 0.0776444 0.996794 -0.0192933
3.28646 27.7939 47.2273 0.0215559 0.524072 0.851401
8.72534 -27.2073 40.582 -0.101592 0.969517 0.22297
7.72082 -28.0486 44.4274 -0.0814598 0.990125 0.114087
7.84603 -27.7617 47.7697 -0.0344817 0.993986 -0.103941
7.92232 -23.4109 39.7661 0.0412846 0.33732 -0.940485
8.94531 -23.1259 48.2235 -0.0837175 0.0295774 0.99605
8.16036 -20.6675 43.0733 -0.0214806 -0.39761 0.917303
7.93791 -19.9675 48.2616 0.0499456 0.0692365 0.996349
7.13113 -16.5969 44.8097 0.0214809 0.0467997 0.998673
8.0409 -16.6788 47.1663 -0.00495461 0.0511086 0.998681
7.91754 -12.9692 43.8355 -0.071582 -0.0702589 0.994957
7.17507 -12.1863 47.2068 -0.0116153 -0.159394 -0.987147
8.09983 -8.08879 43.6977 0.166937 0.00235083 0.985965
7.49503 -7.36449 47.0102 -0.113728 0.0121351 -0.993438
8.71501 -4.17988 43.2943 0.211779 -0.0587048 0.975553
7.63529 -4.10509 48.5874 0.167962 -0.0813353 0.982432
7.31325 -0.686079 44.6173 -0.00906796 0.0680181 0.997643
7.51849 -0.376251 47.5192 0.139547 0.0423588 0.989309
7.41284 4.82294 43.9112 -0.121639 -0.0446653 0.991569
7.14645 3.72866 47.097 0.102025 -0.160343 0.981774
7.71925 7.25141 43.3211 -0.162597 -0.0392023 0.985913
7.81197 8.95767 48.6515 0.0278943 -0.0789791 0.996486
7.54992 11.6491 44.8295 0.0571874 -0.0328386 0.997823
8.14977 11.1175 48.3597 -0.0121158 -0.0704089 0.997445
8.02771 15.7682 43.0473 0.0250642 0.110513 0.993559
8.71397 15.8968 47.158 0.0693982 0.191551 0.979026
7.8784 19.6351 43.329 0.022486 -0.576973 -0.816453
7.26394 20.3858 47.6568 0.0510233 -0.251694 0.966461
8.80519 24.4396 39.9308 -0.243648 -0.0795069 -0.966599
7.0197 24.5979 47.794 0.363772 0.457581 0.811351
7.5812 28.9261 40.2362 0.0506317 0.96182 -0.268957
7.24216 28.2874 43.2345 0.11281 0.992421 0.0487325
7.73633 28.6837 47.6134 0.0344442 0.945585 0.323547
12.6077 -28.2382 40.4125 0.0717354 0.945433 0.317822
11.0146 -27.0227 43.5128 0.0512655 0.995255 0.0827003
11.8472 -27.9029 48.2798 0.0359495 0.535429 -0.843815
11.1355 -23.2097 40.9202 -0.277506 -0.415838 0.866065
12.3703 -24.0258 47.3384 0.173117 -0.12916 -0.976396
11.6915 -20.1754 43.1936 0.0594494 -0.58966 0.805461
12.9001 -20.1068 47.6072 0.145 -0.0929823 -0.985053
12.1867 -16.4032 43.1221 0.0244536 -0.10204 0.99448
12.9339 -15.3999 48.7978 -0.135099 0.0460655 0.989761
12.7544 -11.558 43.6699 0.0397978 0.0573501 0.997561
11.4513 -12.1658 47.1699 -0.0031506 -0.0164712 -0.999859
11.806 -7.85024 44.0912 -0.0820225 0.089675 0.992588
11.6644 -7.1955 47.932 0.136238 -0.0285367 0.990265
12.0308 -3.77865 44.5021 -0.1099 -0.141679 0.983793
11.1611 -3.40788 47.2207 0.0473952 -0.276204 0.95993
11.1594 -0.485308 43.0864 0.0693667 -0.133506 0.988617
11.0346 0.333872 47.899 -0.103438 0.00638673 0.994615
11.846 4.26298 43.0264 -0.0644207 0.0939373 0.993492
11.7716 3.51181 48.754 -0.0859138 -0.0872586 0.992474
12.9406 8.24737 44.6611 -0.0390088 0.141398 -0.989184
11.6985 7.53467 48.4941 0.081098 -0.0326539 0.996171
11.7495 11.1685 43.0012 0.0621932 -0.112955 0.991652
12.5763 11.7434 48.7182 0.0380117 -0.0229135 0.999015
12.5643 15.9101 44.6461 -0.0342732 -0.0785624 0.99632
11.6168 16.0331 47.2886 -0.0143322 -0.122123 0.992412
12.6971 20.8989 44.1064 0.0319147 0.424937 0.90466
12.1667 19.7071 48.8079 -0.0676965 -0.0790047 0.994573
11.0857 24.2081 40.3309 0.177562 0.705333 0.686277
11.4263 23.7418 48.7848 -0.0544719 0.125324 0.990619
12.3473 28.024 39.3712 -0.0227376 0.884869 -0.465284
11.4328 27.6073 43.6824 0.184636 0.98222 0.0339749
12.1731 28.0998 47.1873 -0.0188006 0.965409 0.260062
15.7658 -27.6681 39.8459 0.123509 0.957975 0.258902
16.1308 -27.7881 44.9052 -0.0800825 -0.882834 0.462808
15.7956 -27.4244 48.0158 0.106405 -0.753433 0.648858
15.1041 -24.3821 39.9048 0.0544813 0.637914 -0.768178
16.9449 -24.7198 47.0654 0.109011 -0.674813 0.729893
15.5143 -19.5235 44.7745 0.020544 0.563879 -0.825602
15.7727 -20.4653 48.4348 0.0268544 0.178501 0.983573
16.6101 -15.3553 43.5759 0.155767 0.064617 0.985678
15.918 -16.5406 48.1116 -0.211588 -0.0111206 0.977296
16.6006 -11.2978 43.1838 0.18796 0.0790679 0.978989
15.9773 -11.8327 48.8202 -0.0637108 -0.168572 0.983628
16.9782 -8.04978 44.9466 -0.095137 0.0291993 0.995036
16.6622 -8.90822 47.6329 -0.136776 0.0521216 0.98923
16.1556 -3.23426 43.2121 0.0204747 0.0141789 0.99969
16.058 -4.68874 48.8425 0.0398476 0.170946 0.984474
15.2706 -0.541586 44.5076 -0.0773293 -0.0843827 0.993428
16.6656 0.383225 48.4658 0.150579 -0.0832538 0.985086
16.4903 3.75233 44.9409 0.103869 -0.159916 0.981651
16.9997 4.21526 47.1072 0.0487025 -0.0612604 0.996933
16.5108 7.04743 43.634 0.110314 -0.00277208 0.993893
15.7283 8.07718 48.3614 0.17101 0.101479 0.980029
16.0915 11.7302 44.3666 0.12318 0.0106319 0.992327
15.7778 12.7401 48.2625 -0.0706348 0.0801025 -0.994281
15.2204 15.9905 44.3526 -0.0378992 -0.051825 0.997937
15.3476 16.7161 48.6817 0.205899 -0.0377414 0.977845
15.6181 19.4845 44.5335 -0.102644 -0.30456 -0.946946
15.623 20.0011 48.9641 0.049603 -0.142624 0.988533
15.3513 23.8752 40.5598 0.0280703 -0.350644 -0.936088
16.5163 24.2071 47.8219 -0.114901 0.140734 0.983357
16.2068 27.2613 39.2731 -0.00577517 -0.311272 -0.950303
15.5525 28.5069 43.198 -0.0643432 0.984405 0.16373
15.0382 28.4402 48.6181 -0.133847 0.783965 0.606204
19.3721 -27.8983 40.3996 -0.00211368 0.989797 -0.142467
20.3789 -27.5717 43.4866 0.228306 0.95094 -0.208782
19.2363 -27.3576 48.5959 0.217342 0.513299 -0.830233
20.0329 -23.1476 40.2248 0.000700957 -0.51395 0.85782
19.9185 -23.0769 48.5436 -0.0346613 -0.0549358 0.997888
19.321 -19.5769 43.7148 0.227225 0.00207724 -0.97384
19.2197 -20.589 47.6729 -0.117208 -0.245983 -0.962161
20.9712 -15.6919 43.2174 0.00920799 -0.0784298 0.996877
19.8024 -16.6008 47.4356 0.181149 0.132754 0.974454
20.5198 -11.627 43.8205 0.0446629 -0.10086 0.993898
19.2177 -11.412 48.4868 0.314543 -0.132031 0.940016
20.5393 -7.60735 43.9038 -0.210145 -0.110856 -0.971365
19.7022 -8.78459 48.7356 0.263844 -0.0119573 0.964491
20.6464 -3.55271 43.8266 0.121951 0.128747 0.98415
19.2891 -3.54959 48.3683 -0.129269 -0.0454622 -0.990567
20.9444 -0.365255 43.577 0.163663 -0.0258614 0.986177
20.3855 -0.585705 47.2184 -0.0352539 -0.147071 0.988498
19.8967 4.34371 44.1074 0.0543565 0.0470706 0.997412
19.1635 3.84205 48.2894 0.0807278 0.0864195 0.992983
19.0572 8.2067 44.0476 -0.10512 0.132078 0.98565
19.8547 7.94193 47.284 0.144305 0.0676219 -0.98722
19.4055 11.9324 43.8973 -0.0373096 -0.238157 0.97051
19.6363 11.4413 47.9428 0.0976733 -0.0161992 0.995087
20.4854 16.072 44.6356 -0.0384117 0.00812746 -0.999229
19.835 15.4842 47.9888 -0.105404 -0.0213954 0.994199
20.0027 19.8261 43.0803 -0.0855291 -0.575805 -0.813101
20.7227 20.4473 47.2989 0.0715302 -0.237102 0.968848
20.2228 23.6976 40.9425 -0.0255434 -0.498032 -0.866782
19.8311 24.2074 48.1372 -0.0727572 -0.032043 0.996835
20.8387 28.6843 39.4348 0.0446149 0.650197 -0.758455
20.2261 28.9288 44.6679 0.076257 -0.98515 -0.153833
20.4826 28.3542 48.5636 0.0285067 0.848899 0.527786
23.7242 -28.3857 39.8708 -0.0143159 0.954355 0.298332
23.8593 -27.4653 44.5836 0.0639661 0.98766 -0.142953
24.9153 -28.816 48.8953 -0.0583053 0.777784 -0.625821
23.9837 -24.728 39.0294 0.0581595 0.388895 -0.919444
23.3645 -24.5141 47.0369 0.00469629 0.618979 -0.785393
23.2794 -19.8235 43.9742 0.190393 0.345258 -0.918993
24.216 -19.1507 48.5242 0.0273206 -0.196577 -0.980108
23.1798 -15.2942 43.2902 -0.0362632 0.0583818 0.997635
23.3678 -16.303 47.639 0.0389981 0.0436114 0.998287
24.7074 -11.402 43.4613 -0.0108929 -0.0342212 0.999355
23.1788 -12.3258 48.4345 0.134102 0.00623103 0.990948
24.9481 -7.55975 44.6811 0.047501 0.0081105 0.998838
24.2509 -8.71658 47.1886 -0.0959373 0.0044606 -0.995377
23.6965 -4.17894 44.4648 0.0647718 0.0955857 0.993312
23.9291 -4.04003 47.0928 -0.0586968 0.0449116 0.997265
23.8018 0.091317 44.5931 -0.0435557 -0.021174 -0.998827
24.8695 0.627347 47.6259 -0.0497058 -0.135816 0.989486
24.352 4.74467 44.5079 0.0976107 0.119948 0.98797
24.1166 4.9612 48.9339 -0.12511 0.14363 0.981691
23.4675 7.34674 43.6736 -0.155393 -0.0847345 0.984212
24.9171 7.02236 48.2836 -0.116462 0.0438052 0.992229
23.2045 11.113 44.3356 -0.0836812 -0.126263 0.988461
24.2514 12.8904 48.7515 -0.103287 0.0458656 0.993594
24.3226 16.0018 44.3224 0.0183914 0.179028 0.983672
23.4188 16.7153 48.0104 0.076225 -0.00573621 0.997074
24.7212 20.3174 43.7034 0.190149 -0.181466 -0.964839
24.5339 19.0686 47.8658 -0.0314375 -0.220604 0.974857
24.1068 24.1727 40.7217 0.0327911 0.651043 0.758332
24.0398 23.1871 48.6398 -0.0753067 -0.0408564 0.996323
23.2768 28.1535 40.0887 -0.138282 0.965044 -0.222638
23.8069 28.0174 44.2754 -0.0833903 0.910649 0.404679
24.1922 27.0583 48.6113 -0.132242 -0.496543 -0.857879
27.0887 -28.6422 39.9249 0.106626 0.967495 0.229312
28.4543 -27.5251 44.3326 0.0100972 0.99835 -0.0565334
27.6065 -28.094 48.4447 0.0092411 0.846477 -0.532345
27.9804 -24.6163 40.6486 -0.044167 0.675675 -0.735875
27.3088 -23.2561 48.3446 -0.0268125 -0.0632092 0.99764
28.1503 -19.2585 43.9392 0.158517 -0.0563226 0.985749
28.8591 -20.2432 48.3138 0.00200193 0.194746 0.980852
28.3694 -15.7613 44.8477 -0.0245691 0.12681 0.991623
28.6436 -15.078 47.8485 -0.0857214 -0.161147 -0.983201
28.9376 -11.7659 43.2161 0.019692 -0.00498751 0.999794
28.9815 -11.1101 47.3653 0.0523312 -0.037605 0.997921
28.617 -7.40785 44.1898 0.158884 0.0986597 0.982355
28.6117 -7.13004 48.5762 0.0607919 -0.155295 0.985996
28.438 -3.45758 44.2818 0.0951808 0.023595 0.99518
27.2835 -4.64152 48.771 0.0419579 0.00709365 0.999094
28.6666 0.45765 43.1101 -0.0270919 0.114507 0.993053
28.6529 0.630638 47.9909 0.0722523 -0.0344185 0.996792
27.4319 3.6991 44.1771 -0.0366147 -0.175498 0.983799
27.3556 3.08761 47.9276 -0.0637033 0.1146 0.991367
27.4896 7.33131 43.243 -0.0691996 0.000357981 0.997603
27.147 8.10741 47.413 0.0176007 0.0467969 0.998749
27.2031 12.9438 44.8264 -0.144371 0.137279 -0.979955
27.995 11.2482 48.4065 0.0366714 0.0856572 0.99565
28.4472 15.0323 44.2048 0.160314 -0.0203812 0.986856
27.5776 15.3721 47.5299 -0.0122007 0.148316 0.988865
27.44 19.1285 43.2199 -0.0375624 0.349702 0.936108
28.4581 19.2799 48.0028 0.0385326 -0.158996 0.986527
27.4842 24.843 39.7773 0.0215939 -0.56587 -0.824212
28.2131 23.2982 48.8563 0.0116068 -0.0161474 0.999802
27.0349 28.9929 40.5558 -0.0929325 0.949793 -0.29876
27.2732 28.6641 44.5029 -0.0726499 -0.993059 -0.0925019
27.1001 28.3182 48.8451 0.0557123 -0.577866 -0.814228
32.898 -27.4182 40.6422 -0.0452131 0.979611 -0.195748
32.9859 -28.4805 43.5831 -0.0504565 0.9966 -0.065137
32.6419 -27.5904 48.0184 -0.0552077 0.622552 -0.780628
31.2007 -23.5864 40.9243 -0.0579885 -0.751633 0.657028
32.9637 -24.1873 48.8011 -0.165441 -0.0891365 0.982183
32.4545 -20.9221 44.3736 -0.278582 0.361604 -0.889738
31.2472 -20.4236 47.8528 -0.0115597 0.0328077 0.999395
32.2679 -15.4841 43.5914 0.169088 0.154033 0.97349
31.9098 -16.6074 48.32 -0.173005 0.168449 0.970409
31.118 -11.0134 43.2958 -0.0323489 -0.11051 0.993348
32.1627 -11.5874 48.4944 0.029286 0.0578051 -0.997898
32.8067 -7.42132 43.3863 0.0683931 -0.00616414 0.997639
32.2579 -7.34391 47.9618 0.113732 -0.0324415 0.992982
31.16 -4.86136 43.291 -0.0360727 -0.0712693 0.996805
31.2308 -4.58047 47.2144 -0.037057 0.153827 0.987403
32.8969 -0.926265 43.8468 0.0914669 -0.00414626 0.995799
32.8576 -0.844214 47.7449 -0.0162365 0.0545395 0.99838
32.3329 3.44342 43.8917 -0.0730842 -0.0132649 0.997238
31.4804 4.6972 48.4189 -0.100869 0.14936 -0.983624
31.0788 8.14809 43.3166 -0.0628511 0.0412972 0.997168
32.6107 7.23398 47.5477 0.100876 0.0146355 0.994791
32.694 12.3422 44.6288 -0.0260621 -0.000828222 -0.99966
31.0108 12.2274 47.0092 0.0419419 0.037453 0.998418
32.5814 15.4273 44.1016 0.122065 -0.0234029 0.992246
32.3692 15.1812 48.7262 0.0274948 0.15002 0.988301
32.7541 19.6853 43.9341 0.391466 0.0753725 0.9171
31.0509 20.5531 47.3376 0.120257 -0.125676 0.984756
32.7887 23.8645 40.5217 0.01136 0.688087 0.725539
31.0778 23.0781 47.5785 0.139735 -0.00125286 0.990188
32.4767 27.1706 39.1195 0.0174406 0.964493 0.26353
32.5216 28.9927 43.5105 0.137232 0.975671 0.17098
32.8434 27.7377 47.1939 -0.110758 -0.607367 -0.786663
35.3489 -28.4414 39.9498 -0.0280378 0.931718 0.362098
36.0448 -27.9602 44.9939 0.0431083 0.980783 -0.190281
36.0162 -28.1491 47.4991 0.110647 0.862404 -0.493981
35.8484 -24.2551 40.2735 0.322515 -0.160354 0.932883
35.8698 -23.5477 47.2035 -0.175939 0.193773 -0.965141
35.2529 -19.1623 43.7207 -0.222193 0.43605 -0.872061
35.1343 -20.7938 47.3655 -0.0983019 0.0489703 0.993951
35.0451 -16.4576 43.666 -0.0553829 0.145523 0.987804
36.2717 -16.7745 48.7587 0.027858 -0.0886264 0.995675
36.2495 -12.2368 44.1523 -0.216193 -0.0107601 0.976291
36.0954 -12.5028 47.3179 -0.0200849 0.152808 0.988052
36.0673 -8.89061 43.1894 -0.105122 -0.126217 0.986417
36.2976 -7.40521 47.1946 -0.161621 -0.0563875 0.985241
36.384 -3.70018 44.0664 0.167262 -0.197095 0.966011
36.0731 -4.89317 47.9281 0.0142958 -0.077906 -0.996858
35.4117 0.998748 44.6643 0.0250348 -0.0636626 0.997657
35.0677 0.482439 47.3865 0.0607403 0.0275275 0.997774
36.4824 4.94699 43.4167 0.0201784 0.0576114 0.998135
35.1649 3.02655 47.2475 0.0810247 -0.112359 0.990359
36.95 8.18818 43.8558 -0.0992546 0.0458927 0.994003
36.5929 8.43643 48.3755 -0.0998521 -0.0732028 0.992306
35.8325 12.3945 43.9586 -0.0951525 -0.0560913 0.993881
35.9848 11.0516 48.7774 -0.0916043 0.154245 0.983777
35.3625 15.709 43.942 0.116108 0.0279197 0.992844
36.5491 15.947 47.1472 -0.0838341 0.0975068 0.991698
35.2956 20.5487 43.9435 0.0471271 0.471865 0.88041
35.0642 20.2734 48.0642 0.0399978 -0.177462 0.983314
36.83 24.4162 39.1895 -0.0229001 -0.499333 -0.866108
35.6446 23.8635 47.8511 0.0615369 -0.126346 -0.990076
36.1121 28.1368 39.4962 0.034962 0.996726 0.0729035
36.743 28.0961 43.1905 0.166321 -0.978395 -0.122804
35.8499 27.7235 48.0693 -0.0985265 0.832768 0.544784
39.8262 -27.4851 40.6621 0.0363324 0.988093 0.149509
39.6587 -27.2975 43.0785 -0.248779 0.963141 0.102311
40.0347 -28.0979 47.7339 -0.0289852 0.843968 -0.53561
39.1545 -23.0828 40.3323 -0.047945 -0.323919 0.944869
40.4444 -24.6466 48.6564 0.107295 -0.285217 0.952438
39.2899 -20.3045 43.1386 -0.202514 0.4111 -0.888811
39.6145 -19.0717 47.952 -0.0366029 0.095703 0.994737
40.1883 -16.0743 43.2406 0.0046245 -0.224787 0.974397
39.803 -16.4777 48.8625 0.0189191 -0.00564994 -0.999805
39.8834 -12.7541 44.5152 0.00581914 0.0111681 -0.999921
40.2014 -12.7332 48.5673 -0.140948 -0.00908301 0.989975
40.3525 -8.98492 43.8182 -0.129473 -0.0671105 0.989309
40.56 -8.5137 48.3974 -0.126344 0.173894 0.976626
39.8558 -3.30678 43.1726 0.0440535 -0.0288295 0.998613
39.6148 -4.98069 48.5773 0.0505368 0.0923741 0.994441
40.2375 -0.517712 44.151 -0.0586923 0.146774 0.987427
39.4507 0.923483 48.6434 -0.00681874 -0.0263895 0.999628
40.5151 3.43544 44.0167 0.0735639 -0.152732 0.985526
40.8796 4.30654 47.4382 -0.0109242 -0.0676258 0.997651
40.8493 7.49041 44.0503 0.0948113 0.0597872 0.993698
40.4236 8.19719 48.6381 -0.0695411 0.0196578 0.997385
39.5206 11.3051 44.1642 -0.0926616 0.0707385 0.993182
39.2221 11.5789 47.2631 -0.100767 0.0973554 0.990135
39.2408 15.2575 43.146 -0.207386 0.10888 0.972181
40.705 16.1952 47.537 -0.206282 0.123575 0.970658
40.3235 20.3492 43.5196 -0.0599605 0.362927 0.929886
40.969 19.785 48.8169 -0.177863 -0.154712 0.971817
39.2453 24.9862 40.1784 -0.0105641 0.817995 0.575129
40.7424 24.8956 48.118 -0.136932 0.0545008 0.98908
40.1189 27.0421 39.0896 -0.0229715 0.939462 0.341881
40.5725 27.6252 44.5273 -0.0854585 -0.976545 0.19763
40.0414 28.9256 48.6008 0.0278324 0.841422 0.539662
44.7916 -27.9823 40.5173 0.0892227 0.992975 -0.0777163
44.3318 -27.3202 44.0723 0.0133328 0.980981 0.193646
44.6682 -27.8959 47.6196 -0.0171184 0.890864 -0.453946
44.6346 -24.6445 40.8934 0.246105 0.961924 -0.118893
44.2841 -24.2064 47.8828 -0.16783 -0.396046 0.902763
43.9088 -20.1865 44.416 -0.208733 0.264694 -0.941471
44.828 -20.0844 48.7624 -0.120456 0.20784 0.970718
44.982 -15.9264 43.226 0.0810884 0.112506 0.990337
43.1601 -16.7519 48.5823 0.137332 0.0606808 0.988665
44.6672 -11.8703 44.5288 -0.232217 0.0762284 -0.969672
44.4057 -11.5072 47.5475 0.0494173 0.152966 -0.986995
44.7904 -8.93569 43.1059 -0.0322146 -0.071164 0.996944
43.9892 -7.25649 48.2995 -0.13179 0.122749 0.983648
43.7438 -3.30929 43.7238 -0.157285 0.0709486 0.985001
44.5832 -3.66773 47.9381 -0.0315809 0.0633473 0.997492
43.3924 -0.568119 44.1048 -0.112922 0.102413 0.988312
44.1983 -0.380038 47.3999 0.00819782 0.0267723 0.999608
44.3732 4.20003 44.1258 0.182524 -0.15856 0.970332
44.2769 3.28026 47.4705 -0.104014 0.0627027 -0.992597
44.4108 8.19732 43.9795 -0.0299378 0.0626536 0.997586
43.098 7.31274 47.8412 0.0445273 -0.00454318 0.998998
44.4063 12.0162 44.8811 0.0967035 -0.0504455 0.994034
43.2725 12.6037 48.8006 0.0651433 -0.1449 0.987299
43.7497 15.617 43.9112 -0.00309645 -0.158421 0.987367
44.0819 16.6651 48.135 -0.0265922 -0.119279 0.992505
43.1163 20.7921 43.9095 -0.179839 0.271423 0.945509
44.415 20.3547 48.4659 -0.164663 -0.175443 0.970621
44.8702 24.6383 39.9287 -0.0202881 0.999746 -0.0098369
43.6076 24.9128 47.8504 -0.158967 -0.250691 -0.954926
43.8954 28.6857 40.6141 -0.092233 0.98887 -0.116742
44.5017 28.5141 43.6059 -0.196005 0.976602 -0.0884911
44.1209 28.6669 48.6527 -0.0453901 0.803693 0.593311
