ply
format ascii 1.0
comment Created by Open3D
element vertex 860
property double x
property double y
property double z
property double nx
property double ny
property double nz
end_header
-3.93355 -0.563558 -0.146767 0.908553 -0.280779 0.309345
-3.94742 -0.647569 0.149541 0.720129 -0.36567 -0.589661
-3.93091 -0.685581 0.364735 0.661298 -0.365478 -0.655066
-3.92441 -0.69828 0.646156 0.575695 -0.177872 -0.798083
-3.99939 -0.446217 -0.426189 0.614919 -0.201233 0.762483
-4.09193 -0.4323 -0.230186 0.720724 -0.607354 0.334183
-3.95794 -0.333607 0.140174 0.906443 -0.254532 -0.337008
-3.96234 -0.437908 0.447935 -0.662965 0.300904 0.685517
-4.09509 -0.298473 -0.38374 0.841103 -0.40526 0.358205
-3.94078 -0.252364 -0.288232 0.830336 -0.199197 0.520445
-4.04808 -0.172009 -0.00131815 0.976387 -0.191328 -0.100306
-3.90535 -0.1299 0.279734 0.912285 -0.150255 -0.380997
-3.97348 -0.159632 0.322706 0.836896 -0.167952 -0.520958
-3.98494 -0.030902 -0.495782 -0.676141 0.140886 -0.723176
-4.05951 0.0573788 -0.276799 0.900737 -0.358366 0.245451
-3.96792 -0.0279794 0.0755289 0.945161 -0.289988 -0.150262
-4.06463 0.0944859 0.145343 0.965229 -0.100691 -0.241236
-4.0468 0.0459125 0.436838 0.947644 0.00404123 -0.319304
-4.0978 0.293832 -0.232281 0.916611 -0.311901 0.250085
-3.91635 0.246535 -0.0110088 0.912196 -0.377186 -0.16009
-4.01946 0.191274 0.130256 0.907284 -0.370755 -0.198434
-3.78429 -3.7371 -0.304319 0.802029 -0.560585 -0.206143
-3.85032 -3.83883 -0.139213 0.517603 -0.851661 -0.0822225
-3.7805 -3.73064 0.01447 0.94967 -0.295683 0.10343
-3.89023 -3.82725 0.145302 0.69362 -0.7163 0.0761944
-3.76164 -3.74979 0.373451 0.976403 -0.104944 0.188743
-3.72453 -3.61973 -0.394973 0.853584 -0.213313 -0.475281
-3.78583 -3.60344 -0.188842 0.966012 -0.257813 0.0188081
-3.74726 -3.50561 -0.0554753 0.969495 -0.138812 0.202018
-3.86855 -3.53073 0.298994 0.952221 -0.189222 0.239731
-3.71753 -3.66195 0.404966 0.954478 -0.0810602 0.287057
-3.71759 -3.3003 -0.37919 0.898394 -0.222736 -0.378519
-3.75079 -3.38579 -0.147738 0.88295 -0.0119559 0.469315
-3.8483 -3.37093 0.0933725 0.94875 -0.313519 0.0397403
-3.89814 -3.41613 0.186503 0.997983 0.0110113 0.06252
-3.75107 -3.45246 0.327597 0.977888 -0.175383 0.113911
-3.70276 -3.24106 -0.432849 0.832304 -0.27975 -0.47855
-3.76643 -3.28846 -0.0649684 0.791242 -0.592056 0.152993
-3.75341 -3.23934 0.330495 0.932356 -0.003353 0.361525
-3.74306 -2.94856 -0.364159 0.746214 -0.0864523 -0.660068
-3.78768 -2.95145 -0.172068 0.886181 -0.453636 -0.0943259
-3.82977 -2.93392 0.182922 0.885733 -0.427836 0.180093
-3.74576 -3.09674 0.39818 0.749241 -0.359744 0.556077
-3.86739 -2.71962 -0.516958 -0.549037 0.362556 0.753068
-3.89503 -2.87359 -0.231044 0.59265 -0.689853 -0.415774
-3.80503 -2.86086 0.210765 0.776484 -0.381239 0.501726
-3.87123 -2.73585 0.646844 -0.3624 0.0689331 -0.92947
-3.84074 -2.63078 -0.567993 -0.53977 0.293761 0.788893
-3.73004 -2.68882 -0.353104 0.675316 -0.365662 -0.640499
-3.76725 -2.54844 0.384787 0.75837 0.0160228 0.651627
-3.70271 -2.64455 0.631904 0.660357 0.0231996 0.750594
-3.70315 -2.39124 -0.607668 -0.602327 0.0421273 0.797137
-3.80192 -2.33766 -0.334254 0.751598 -0.0659225 -0.65632
-3.75502 -2.41702 0.477307 0.64604 0.0664727 0.760404
-3.79612 -2.36479 0.540275 0.684615 -0.0548726 0.726836
-3.87682 -2.19695 -0.638342 -0.202575 0.0375404 0.978547
-3.803 -2.18375 -0.483449 0.583131 -0.0476878 -0.810977
-3.89668 -2.23109 0.341057 -0.557091 -0.34848 -0.753798
-3.81318 -2.23023 0.668108 0.23667 -0.171463 0.956341
-3.79845 -2.05167 -0.535523 -0.56521 0.19817 0.800791
-3.74903 -1.95661 0.643109 -0.30392 0.137302 -0.942752
-3.87311 -1.76165 -0.644887 -0.122645 -0.0967664 0.987722
-3.7463 -1.77597 0.644284 0.346265 -0.0810331 0.934631
-3.79928 -1.56201 -0.506924 0.0476983 0.0285347 -0.998454
-3.86581 -1.66902 0.560811 0.0051164 -0.127266 0.991855
-3.79304 -1.45707 -0.516523 0.0384149 -0.15487 0.987188
-3.78699 -1.32738 0.525584 -0.0917256 -0.342232 0.935128
-3.84129 -1.11947 -0.5345 0.158224 0.17031 0.972605
-3.83485 -1.1355 0.532451 0.107978 0.207629 -0.97223
-3.74061 -1.01393 -0.647515 -0.0264121 0.19342 0.98076
-3.85259 -0.939374 0.689131 -0.351208 0.103575 0.930551
-3.80462 -0.700838 -0.544638 -0.331107 0.125321 -0.935234
-3.80485 -0.732505 0.697134 -0.376119 0.123047 0.918365
-3.80267 -0.681997 -0.641603 0.337402 -0.0961424 0.936438
-3.70832 -0.667672 0.693422 -0.0509014 0.106389 0.993021
-3.81245 -0.38358 -0.515752 0.431044 -0.135845 0.892047
-3.77966 -0.361906 -0.407503 -0.511888 0.0812928 -0.855197
-3.76531 -0.445256 0.44889 0.475185 -0.146121 -0.867668
-3.89672 -0.31195 0.55682 0.709563 -0.0817214 -0.699887
-3.81559 -0.181412 -0.687636 -0.383463 0.289444 -0.877028
-3.72513 -0.160672 -0.325605 0.458857 -0.319081 0.829239
-3.80126 -0.146359 0.393358 0.726414 -0.140961 -0.672646
-3.88143 -0.189612 0.508347 0.719128 -0.00489846 -0.694861
-3.82428 -0.0531864 -0.615635 0.497932 -0.12729 0.857824
-3.79513 0.0648697 -0.440185 0.563362 -0.151534 0.812195
-3.88542 -0.0474494 -0.113394 0.986862 -0.153535 0.0502943
-3.88393 0.0138078 0.13358 0.914999 -0.286248 -0.284321
-3.766 -0.0342195 0.328759 0.782931 -0.276433 -0.557318
-3.75097 0.0452637 0.660654 -0.37623 0.056899 0.924778
-3.73778 0.284861 -0.427305 0.593125 -0.41931 0.687301
-3.85625 0.232735 -0.296379 0.795306 -0.274637 0.540429
-3.89003 0.200581 0.219237 0.925671 -0.345564 -0.154006
-3.89228 0.296587 0.487925 0.761512 -0.287375 -0.580961
-3.80943 0.312898 -0.439123 0.602218 -0.429233 0.673121
-3.77142 0.32822 -0.173278 0.780798 -0.528595 0.333079
-3.80449 0.304854 0.0315871 0.834754 -0.45373 -0.311954
-3.79282 0.304194 0.158058 0.822982 -0.492094 -0.283803
-3.85314 0.448561 0.472937 0.720347 -0.407411 -0.561352
-3.84856 0.580318 -0.250014 0.762972 -0.436324 0.476964
-3.8594 0.568636 -0.0959799 0.827848 -0.450242 0.334589
-3.72816 0.591727 0.157442 0.881988 -0.331545 -0.334927
-3.73905 0.803002 -0.19444 0.889043 -0.0672154 0.452862
-3.84598 0.82661 0.027374 0.962034 -0.236749 -0.135798
-3.88519 0.755159 0.234928 0.873055 -0.329163 -0.359758
-3.57821 -3.22664 -0.205012 0.962233 -0.263331 -0.0690244
-3.52862 -3.26478 -0.0573828 0.939899 -0.331327 -0.082537
-3.6164 -3.21147 0.294808 0.840554 -0.401697 0.363466
-3.56709 -2.91003 -0.18233 0.897505 -0.122172 -0.423744
-3.67702 -2.95263 0.0801873 0.948615 -0.300527 0.0990655
-3.52695 -2.9073 0.130912 0.980217 -0.127869 0.151075
-3.6528 -2.87598 -0.401143 -0.665493 0.142887 0.7326
-3.54378 -2.7401 -0.250674 0.808978 -0.396098 -0.434351
-3.52977 -2.87524 -0.0132794 0.991602 -0.114978 -0.0592139
-3.53774 -2.78701 0.171599 0.954105 -0.0893675 0.285828
-3.57097 -2.80725 0.466178 -0.663712 0.280933 -0.693227
-3.65995 -2.65268 -0.374483 0.798773 -0.285587 -0.529529
-3.51961 -2.54946 -0.278685 0.804227 -0.200103 -0.559623
-3.54003 -2.69111 -0.0926604 0.882323 -0.44857 -0.142446
-3.59693 -2.65128 0.266019 0.874657 -0.158637 0.45805
-3.66341 -2.66358 0.380341 0.746888 -0.242406 0.619192
-3.55283 -2.48647 -0.440128 0.780781 -0.0520351 -0.622635
-3.51453 -2.38485 -0.108413 0.973019 -0.154484 -0.171375
-3.57521 -2.46005 -0.0161066 0.995205 -0.089377 -0.0397327
-3.63921 -2.41057 0.232107 0.806438 -0.0841773 0.585297
-3.69193 -2.39844 0.315566 0.772682 -0.0483269 0.632951
-3.52509 -2.29789 -0.337004 0.812424 0.0060726 -0.583035
-3.53717 -2.26673 -0.281733 0.809961 -0.0171539 -0.586232
-3.53459 -2.24065 0.207021 0.906115 -0.178781 0.383397
-3.57784 -2.10846 0.457838 0.73393 -0.316358 0.601053
-3.52217 -1.91419 -0.600348 0.524961 -0.289942 -0.800219
-3.69458 -2.04038 -0.436491 -0.609667 0.298439 0.73433
-3.58557 -2.09062 -0.173006 0.872188 -0.204154 -0.444534
-3.66638 -2.01595 0.155492 0.907845 -0.235981 0.346598
-3.57948 -1.90587 0.385633 0.662866 -0.2653 0.70016
-3.51447 -1.94396 0.65761 0.646973 0.0325038 0.76182
-3.52369 -1.72274 -0.608675 -0.496582 -0.0256613 0.86761
-3.60703 -1.76301 -0.353567 0.771601 -0.0990476 -0.628348
-3.68418 -1.76826 0.365133 0.686451 -0.16062 0.709215
-3.59969 -1.7422 0.675391 0.554688 9.64649e-05 0.832058
-3.57355 -1.60532 -0.67624 -0.427352 0.0140976 0.903975
-3.55843 -1.57995 -0.416928 0.703061 0.151687 -0.694763
-3.69997 -1.61576 0.437082 -0.57279 -0.120148 -0.810849
-3.67082 -1.53941 0.631975 -0.36104 -0.0288688 -0.932103
-3.61998 -1.45737 -0.603388 -0.449147 0.11868 0.88554
-3.63506 -1.44549 -0.399329 0.721265 -0.00995799 -0.692587
-3.54711 -1.38161 0.321752 0.486682 -0.351696 0.799656
-3.50015 -1.43469 0.510487 0.710942 -0.26288 0.65227
-3.60541 -1.24126 -0.61668 -0.0611821 0.0684302 0.995778
-3.62396 -1.1065 0.614932 0.0727684 -0.275804 0.958455
-3.5454 -1.07146 -0.613404 0.191401 -0.114487 -0.974812
-3.5303 -1.08137 0.689113 0.136204 -0.256718 0.956841
-3.64359 -0.898423 -0.589832 -0.128985 0.126495 0.983546
-3.5355 -0.814217 0.609345 0.388964 0.0815184 0.917639
-3.56838 -0.684331 -0.679303 -0.0645236 0.0256304 0.997587
-3.64338 -0.530962 0.570992 0.00327976 0.0949573 0.995476
-3.57099 -0.347285 -0.633322 -0.0675254 -0.106233 0.992046
-3.59403 -0.388858 0.575812 -0.114301 -0.0216505 0.99321
-3.68907 -0.170242 -0.550662 0.262125 -0.121164 0.957397
-3.54115 -0.2905 0.60479 -0.0865327 -0.0666145 0.994019
-3.60862 -0.00694057 -0.500873 0.215756 -0.103883 0.970906
-3.54857 0.0584359 0.620266 0.389559 0.081176 -0.917417
-3.61113 0.274229 -0.640333 0.345677 -0.0885757 0.934164
-3.59805 0.211881 -0.402716 0.41948 -0.261587 0.869258
-3.52249 0.270921 0.454995 -0.30954 -0.00170372 0.950885
-3.63323 0.154027 0.599108 0.254488 0.0232248 -0.966797
-3.55119 0.419877 -0.558112 0.435326 -0.0661544 0.897839
-3.58731 0.450524 -0.470191 0.714993 -0.31231 0.625498
-3.67858 0.335375 0.300446 0.835857 -0.300753 -0.459229
-3.64911 0.488945 0.678527 0.42177 -0.118716 -0.898897
-3.5659 0.61996 -0.636597 0.779242 -0.326159 0.535166
-3.61312 0.602431 -0.340138 0.724274 -0.402243 0.560025
-3.52346 0.524048 -0.261756 0.823703 -0.370406 0.429317
-3.51495 0.562618 0.102683 0.897026 -0.400436 -0.187069
-3.55931 0.555603 0.424338 0.679778 -0.17266 -0.712805
-3.56534 0.503363 0.651436 0.392224 -0.166599 -0.904658
-3.51479 0.716606 -0.442077 0.776587 -0.26199 0.572951
-3.50544 0.76937 -0.259621 0.89782 -0.205605 0.389417
-3.63664 0.819761 -0.00650242 0.917076 -0.383048 0.110658
-3.52622 0.893134 0.200536 0.788896 -0.394064 -0.471547
-3.5574 0.886567 0.484072 -0.633513 0.377028 0.675656
-3.55606 1.07738 -0.334943 0.759382 -0.336454 0.5569
-3.60144 0.90528 -0.195498 0.783883 -0.340097 0.519482
-3.68953 1.07945 0.0244735 0.767758 -0.63979 0.0348741
-3.60108 0.931338 0.279756 0.761381 -0.298982 -0.575246
-3.66504 0.939745 0.413821 0.729809 -0.229895 -0.643837
-3.65752 1.11396 -0.16398 0.874607 -0.390623 0.287186
-3.509 1.27142 0.032282 0.917394 -0.394467 -0.0527704
-3.65934 1.15565 0.22097 0.866497 -0.333977 -0.371003
-3.34903 -2.33495 -0.0981165 0.97672 -0.212537 0.0290894
-3.45938 -2.11623 -0.159262 0.985918 -0.124877 -0.111224
-3.36313 -2.2945 0.0913122 0.974286 -0.170449 0.147357
-3.48729 -2.19294 0.180126 0.89723 -0.263214 0.354537
-3.34377 -1.90278 -0.465783 0.814565 -0.405397 -0.414894
-3.32184 -1.91203 -0.15255 0.964509 -0.240955 -0.107998
-3.46234 -1.9144 -0.073444 0.967696 -0.251247 0.0209437
-3.44193 -2.0608 0.130735 0.956241 -0.178004 0.232202
-3.45614 -2.02545 0.424782 0.897677 -0.107739 0.427281
-3.49032 -1.82478 -0.382535 0.797596 -0.329745 -0.505082
-3.38053 -1.87693 -0.11519 0.935049 -0.353969 0.0197141
-3.39966 -1.81615 -0.0298876 0.915502 -0.401932 0.0175244
-3.42914 -1.75703 0.206911 0.794354 -0.342211 0.50189
-3.48214 -1.82302 0.341158 0.871309 -0.211306 0.442911
-3.41081 -1.67499 -0.329874 0.906835 -0.0934602 -0.410993
-3.36196 -1.62873 -0.23527 0.93317 0.0151417 -0.359115
-3.31979 -1.58553 0.0437098 0.931358 -0.326387 0.161379
-3.38358 -1.55381 0.162046 0.880137 -0.346662 0.324322
-3.43698 -1.60165 0.415181 0.772639 0.0055881 0.634821
-3.33471 -1.43171 -0.357259 0.752671 -0.209372 -0.62422
-3.32732 -1.43711 -0.18072 0.844729 -0.316583 -0.431519
-3.34171 -1.41875 0.266812 0.807728 -0.375889 0.454184
-3.48724 -1.44432 0.416947 0.627884 -0.257836 0.734358
-3.48368 -1.27364 -0.541028 -0.462301 0.266882 0.845608
-3.48328 -1.23598 -0.427025 -0.557126 0.308104 0.771157
-3.49116 -1.27424 -0.173642 0.787392 -0.300676 -0.538153
-3.41791 -1.29224 0.270986 0.833117 -0.279757 0.477128
-3.34153 -1.16486 0.487678 0.668973 -0.312207 0.674539
-3.48371 -1.17805 0.596176 0.354313 -0.361965 0.862232
-3.32842 -0.909449 -0.585352 0.580519 -0.27703 -0.765671
-3.3611 -1.07002 -0.434908 0.704202 -0.250396 -0.664381
-3.44893 -1.01302 0.433074 -0.55487 0.210824 -0.804781
-3.31926 -0.930629 0.688037 0.656158 -0.142277 0.74109
-3.36004 -0.747642 -0.652971 -0.405228 0.326423 0.853955
-3.45016 -0.791756 -0.334123 0.639187 0.061087 -0.766621
-3.49847 -0.71719 0.330895 -0.188834 0.247429 -0.950327
-3.45194 -0.832218 0.598526 0.423947 0.0462815 0.904504
-3.30714 -0.601926 -0.565945 0.579036 -0.256493 -0.773905
-3.40608 -0.647581 0.39906 0.544349 0.0750831 0.835492
-3.32722 -0.652351 0.648927 -0.44024 0.0578702 -0.896013
-3.39144 -0.367144 -0.570658 -0.00674669 -0.148483 0.988892
-3.44161 -0.3657 0.532352 -0.00115365 -0.0605059 0.998167
-3.4807 -0.128239 -0.540335 0.0153245 0.0790107 0.996756
-3.3037 -0.186856 0.657226 0.325687 -0.086524 0.94151
-3.37139 0.00649086 -0.532521 0.125488 0.0972589 0.987316
-3.37919 -0.0889229 0.622588 0.235655 0.0702154 0.969297
-3.31468 0.293462 -0.61206 -0.044812 0.0849456 0.995377
-3.48049 0.102297 0.567177 -0.125924 -0.0275812 0.991656
-3.35569 0.498191 -0.61534 0.290247 -0.114976 0.950019
-3.32101 0.457557 0.560521 0.0269124 -0.0238115 0.999354
-3.49914 0.682722 -0.534917 0.637705 -0.362216 0.679803
-3.49829 0.508198 -0.345068 0.709442 -0.27429 0.649197
-3.47087 0.680506 0.436423 0.835893 -0.305289 -0.45616
-3.40078 0.581984 0.69756 -0.293307 0.156081 0.943191
-3.41258 0.757059 -0.630021 -0.589714 0.313909 -0.744109
-3.36913 0.842327 -0.470931 0.655509 -0.204983 0.726835
-3.4717 0.747264 0.302268 0.766671 -0.372386 -0.523015
-3.31767 0.802794 0.643775 -0.36438 0.199054 0.909728
-3.37759 1.01888 -0.627114 0.397065 -0.30283 0.866391
-3.43115 0.927562 -0.239162 0.845257 -0.363844 0.391353
-3.33529 0.91897 0.161365 0.961304 -0.216632 -0.17019
-3.4112 1.02581 0.540736 0.73658 -0.0697109 -0.672748
-3.39969 1.10206 -0.386638 0.774888 -0.319154 0.545609
-3.39983 1.29733 -0.270837 0.716057 -0.434333 0.546459
-3.30529 1.26723 -0.0932827 0.788375 -0.535156 0.303435
-3.32361 1.14292 0.147834 0.784726 -0.552911 -0.280169
-3.42483 1.21649 0.450798 0.816944 -0.396914 -0.418404
-3.46878 1.34561 -0.349511 0.723898 -0.492001 0.48364
-3.40926 1.40213 -0.213598 0.613104 -0.543229 0.573591
-3.4365 1.40696 0.0697204 0.796957 -0.604001 0.00654501
-3.44325 1.44238 0.244568 0.936016 -0.348591 -0.0485601
-3.48561 1.37717 0.427006 0.835577 -0.328333 -0.440464
-3.33584 1.56744 -0.253571 0.902324 -0.229482 0.364897
-3.39164 1.6151 -0.09975 0.916909 -0.398763 0.0163236
-3.40935 1.67472 0.126503 0.873776 -0.481534 0.0681188
-3.21243 -1.63658 -0.27844 0.888646 -0.260825 -0.377197
-3.24431 -1.54422 -0.0928313 0.967336 -0.160261 -0.196412
-3.17028 -1.57613 0.243156 0.807291 -0.379281 0.452137
-3.27373 -1.4363 -0.102151 0.960863 -0.276692 -0.0135712
-3.1204 -1.31445 0.0109503 0.878398 -0.476661 0.0348072
-3.22376 -1.42068 0.180161 0.878915 -0.379595 0.288818
-3.12885 -1.19946 -0.396592 0.72408 -0.381305 -0.57473
-3.28834 -1.18172 -0.104147 0.878709 -0.313323 -0.360136
-3.20601 -1.2548 -0.0728382 0.907918 -0.418684 -0.0196942
-3.12225 -1.23662 0.136823 0.898239 -0.343191 0.274568
-3.18085 -1.18347 0.350455 0.741558 -0.292502 0.603767
-3.25553 -1.04673 -0.45923 -0.671935 0.273976 0.68807
-3.28866 -0.911282 -0.267516 0.778347 -0.305525 -0.548481
-3.13858 -0.993775 0.0781199 0.985706 -0.134991 0.100798
-3.11636 -1.02324 0.230744 0.808093 -0.374309 0.45484
-3.28131 -1.08735 0.470851 0.651388 -0.314054 0.690698
-3.29926 -0.82415 -0.350556 0.682041 -0.342648 -0.646074
-3.13202 -0.864849 -0.205272 0.767991 -0.32107 -0.554169
-3.23438 -0.870608 0.294746 0.726317 -0.068854 0.683903
-3.1069 -0.749541 0.314976 0.550612 -0.431997 0.714286
-3.14489 -0.631793 -0.689541 0.379131 -0.117746 -0.917821
-3.13934 -0.642235 -0.317959 -0.564728 0.516703 0.643506
-3.16667 -0.647866 -0.126257 0.730349 -0.46094 -0.504108
-3.23538 -0.689048 0.195552 0.644271 -0.22199 0.731872
-3.18786 -0.696066 0.571086 0.563521 -0.278693 0.777673
-3.11248 -0.437436 -0.583541 -0.52002 0.0311662 0.853586
-3.26298 -0.348433 -0.341898 0.37026 -0.288459 -0.883005
-3.22412 -0.479792 0.459896 0.301026 -0.401999 0.864743
-3.25308 -0.408842 0.576253 0.326814 -0.187992 0.926203
-3.2234 -0.178456 -0.637114 -0.214436 0.0333216 0.97617
-3.20837 -0.283096 -0.46237 -0.406603 0.0573093 0.911806
-3.18059 -0.161992 0.38592 0.39787 -0.138773 0.906886
-3.2934 -0.206491 0.698108 0.252663 -0.0662625 0.965283
-3.19783 -0.0185435 -0.580872 -0.17699 0.128634 0.975771
-3.29741 -0.051076 0.501611 0.267767 0.0624689 0.961456
-3.21885 0.214915 -0.559305 -0.0978018 -0.0140577 0.995107
-3.1308 0.193459 0.500953 0.2509 -0.0987345 0.962965
-3.1586 0.314901 -0.596852 -0.119106 0.0814117 0.989538
-3.21256 0.366436 0.555452 -0.0206807 -0.157935 0.987233
-3.11236 0.577844 -0.531888 -0.115735 0.00277146 0.993276
-3.23746 0.584668 0.6984 -0.107532 0.135575 -0.984914
-3.29388 0.876272 -0.533049 0.33256 -0.281977 0.899941
-3.2736 0.847801 0.558579 -0.398872 0.110217 0.910359
-3.1787 1.08741 -0.554494 0.395832 -0.264082 0.879533
-3.21386 1.07854 -0.392661 -0.450097 0.297701 -0.841895
-3.2798 0.983211 0.335769 -0.619974 0.451949 0.641385
-3.25438 1.05593 0.605399 -0.251375 0.0609544 0.965968
-3.254 1.29814 -0.689472 -0.480501 0.276412 -0.832295
-3.18965 1.28562 -0.379631 0.749139 -0.366253 0.551951
-3.16203 1.21986 0.479579 -0.407927 0.364523 0.837089
-3.2856 1.25224 0.683672 -0.294275 0.0108765 0.955659
-3.11438 1.36875 -0.522106 0.621834 -0.245763 0.743588
-3.18438 1.40751 -0.103536 0.806871 -0.512824 0.293208
-3.14325 1.33923 0.13538 0.715931 -0.500935 -0.48632
-3.25801 1.3251 0.607002 -0.337934 0.310059 0.888631
-3.14225 1.66802 -0.46073 0.687839 -0.245951 0.682924
-3.24349 1.50957 -0.252715 0.786819 -0.515637 0.339167
-3.12088 1.65104 0.0558493 0.822174 -0.567588 -0.0432937
-3.27948 1.55455 0.132784 0.741558 -0.660325 0.118584
-3.19028 1.68614 0.432795 0.649753 -0.42399 -0.630915
-3.26852 1.87801 -0.403524 0.735263 -0.434019 0.520592
-3.15464 1.82653 -0.295399 -0.753474 0.473194 -0.456469
-3.19858 1.75254 -0.0547264 0.86369 -0.49849 -0.0744797
-3.234 1.76876 0.277849 0.868707 -0.396227 -0.297241
-3.29641 1.79599 0.440198 0.758151 -0.193379 -0.622745
-3.25992 2.03858 -0.296804 0.663863 -0.467401 0.5838
-3.20449 2.03654 -0.0200567 0.948365 -0.315822 -0.0293203
-3.11546 2.0779 0.266571 0.772879 -0.487516 -0.406184
-2.92794 -1.04454 -0.245115 0.771059 -0.395584 -0.498981
-3.00586 -0.956069 -0.085911 0.830221 -0.371723 -0.415397
-2.97103 -0.99204 0.241479 0.8088 -0.304052 0.503384
-3.09194 -0.851464 -0.222036 0.732045 -0.323498 -0.599549
-2.91884 -0.855741 -0.000579903 0.764589 -0.618069 0.182741
-2.96612 -0.747889 0.120232 0.638786 -0.763137 0.0978501
-3.06339 -0.590376 -0.478133 -0.656536 0.370928 0.65679
-2.94619 -0.548587 -0.226254 0.200285 -0.740884 -0.641075
-2.91922 -0.555838 0.0372292 0.0810418 -0.988311 0.129128
-3.08305 -0.527832 0.193406 0.465415 -0.61722 0.634372
-2.96999 -0.62873 0.341796 0.520476 -0.492285 0.697683
-2.9444 -0.346741 -0.381141 -0.311977 0.169602 0.934829
-2.92062 -0.354431 0.47028 0.217089 -0.105066 0.970481
-2.97324 -0.267678 -0.470853 0.425821 -0.192044 -0.884192
-3.07113 -0.142932 0.477889 0.330083 -0.0355706 0.943281
-2.95195 0.00328821 -0.674692 -0.349344 0.206031 0.914062
-3.07642 0.0900743 -0.323557 -0.469746 0.0199634 0.882576
-3.05031 -0.0682807 0.335172 0.346925 0.033324 0.937301
-3.00283 -0.0616939 0.521455 0.365674 0.0397505 0.929894
-2.9356 0.110197 -0.512993 -0.305532 0.0147737 0.952067
-2.96954 0.223443 -0.409551 -0.429503 0.105646 0.896865
-3.02525 0.156584 0.470721 0.305745 -0.208388 0.929029
-3.0797 0.182463 0.575846 0.358977 -0.153432 0.920649
-3.07135 0.317114 -0.631077 0.251962 -0.0748223 -0.96484
-3.03713 0.483687 -0.366265 -0.280278 0.198768 0.939114
-3.00979 0.424534 0.363929 0.409945 -0.201021 0.889683
-3.08729 0.450829 0.644791 0.230781 -0.114041 0.966299
-3.01513 0.542647 -0.605681 -0.214107 0.0580833 0.975082
-2.99705 0.690895 0.619847 0.199796 -0.0921775 0.975492
-3.08775 0.72908 -0.618085 -0.10507 -0.0976949 0.989655
-3.02013 0.843854 0.590624 0.152178 0.134987 0.979092
-2.94972 0.928966 -0.569016 -0.0856258 0.0629144 0.994339
-3.02786 1.0503 0.663503 0.0353749 0.00211469 0.999372
-2.99395 1.17051 -0.563844 0.0296688 0.0447904 0.998556
-2.94994 1.22376 0.537286 0.146005 0.0830244 0.985794
-2.96769 1.41852 -0.530311 0.20329 0.0751372 0.976231
-3.03765 1.32852 -0.376768 -0.647063 -0.0932653 -0.756711
-2.90385 1.33053 0.415978 0.213074 -0.17741 -0.960794
-2.98579 1.47204 0.575822 -0.137265 0.235206 0.962204
-3.0831 1.56611 -0.604177 0.583919 -0.121632 0.802648
-3.07123 1.57261 -0.478152 -0.581375 0.26062 -0.770766
-3.02466 1.60133 0.346154 0.741266 -0.203158 -0.639728
-2.9231 1.66268 0.593114 -0.382331 0.0716932 0.92124
-2.90029 1.83819 -0.582689 0.501565 -0.326341 0.801208
-2.94486 1.75026 -0.15553 0.830277 -0.542987 0.125717
-2.97379 1.7085 0.208354 0.933837 -0.314589 -0.170238
-2.9894 1.85676 0.558045 -0.538389 0.137454 0.831411
-2.90559 1.90333 -0.498637 0.558598 -0.498541 0.662891
-2.93561 1.90459 -0.176965 0.8459 -0.343633 0.407885
-2.90024 2.06 0.0627742 0.967446 -0.218034 0.128491
-3.0211 1.98316 0.279688 0.833077 -0.362212 -0.418074
-2.96223 2.0624 0.430003 0.800681 -0.160905 -0.577078
-2.93709 2.14445 -0.30457 0.588196 -0.601129 0.540989
-3.08516 2.28252 -0.252118 0.637661 -0.673336 0.374175
-3.09236 2.23125 -0.075956 0.762494 -0.643303 0.0690226
-2.90592 2.26197 0.137816 0.94398 -0.268232 0.192233
-3.06646 2.11794 0.42846 0.736269 -0.505605 -0.449747
-2.91978 2.31793 -0.126144 0.765177 -0.573608 0.292365
-3.05339 2.33346 0.0816323 0.844883 -0.530091 0.0719433
-3.03163 2.35458 0.230975 0.891715 -0.357171 -0.27798
-2.80996 -0.533223 -0.459942 0.263088 -0.577116 -0.773125
-2.85776 -0.615128 -0.173981 0.475156 -0.801651 -0.362743
-2.7753 -0.677299 -0.0247606 -0.141782 0.963359 -0.227676
-2.83321 -0.683626 0.206034 0.28254 -0.82271 0.493274
-2.80041 -0.558544 0.378842 0.120324 -0.744462 0.656733
-2.89033 -0.328117 -0.408759 -0.265557 0.253947 0.930049
-2.87807 -0.463537 0.426125 0.110687 -0.442972 0.889676
-2.89428 -0.145647 -0.339158 0.310153 -0.136756 -0.940799
-2.75377 -0.265712 0.315877 0.0996284 -0.155259 0.982837
-2.82913 -0.0103737 -0.318609 0.214485 -0.0396831 -0.975921
-2.88991 0.0222826 0.372263 0.193027 -0.0409819 0.980337
-2.84383 0.107449 -0.444825 -0.303391 0.0834714 0.949203
-2.75378 0.213677 0.329755 0.127478 -0.0740818 0.989071
-2.78753 0.356236 -0.589488 -0.23176 -0.00552515 0.972757
-2.76302 0.408024 -0.397035 -0.198347 0.115408 0.973314
-2.84721 0.337832 0.36968 -0.363349 0.186365 -0.912823
-2.8019 0.316612 0.687228 0.361676 -0.246825 0.899037
-2.82061 0.652961 -0.506453 -0.315223 0.0219468 0.948764
-2.85368 0.678616 -0.498162 -0.315223 0.0219468 0.948764
-2.72622 0.646751 0.408219 0.231864 -0.227177 0.945849
-2.74924 0.653864 0.508127 0.354351 -0.157325 0.921783
-2.73187 0.747254 -0.555025 -0.264499 0.103312 0.958836
-2.7775 0.879123 -0.427205 -0.3313 0.112834 0.936755
-2.74816 0.717747 0.420473 0.15103 -0.260275 0.953649
-2.8844 0.76282 0.526341 0.353744 -0.175363 0.918756
-2.85746 0.997712 -0.512087 -0.0859595 0.00189662 0.996297
-2.70595 0.944971 0.690456 0.349741 -0.198638 0.915546
-2.82768 1.29208 -0.624456 0.0610654 0.0638196 0.996091
-2.81211 1.13958 0.507039 -0.0851441 0.0925491 -0.992061
-2.87891 1.47254 -0.604944 0.11543 0.0736172 0.990584
-2.86567 1.47431 0.641597 -0.165149 -0.0439451 0.985289
-2.80736 1.64358 -0.643316 0.19517 -0.0821628 0.977322
-2.76753 1.69902 0.662291 0.000734398 0.0787341 0.996895
-2.752 1.86919 -0.659108 0.0986195 -0.0664901 0.992901
-2.76077 1.87098 -0.418139 -0.501316 0.404553 -0.764866
-2.71379 1.74223 0.452423 0.120804 -0.155359 -0.980444
-2.7631 1.86794 0.6568 0.0184004 0.0710118 0.997306
-2.87898 2.05411 -0.524739 0.65191 -0.303326 0.694987
-2.86766 1.90119 -0.387149 0.562884 -0.478377 0.674031
-2.78688 2.05314 0.308211 0.800681 -0.160905 -0.577078
-2.79147 1.92476 0.556606 -0.205483 0.0479329 0.977486
-2.81776 2.10288 -0.583427 0.623537 -0.314232 0.715863
-2.85627 2.17269 -0.155576 0.774533 -0.419467 0.473442
-2.87995 2.28412 0.283555 0.78786 -0.563745 -0.24793
-2.89258 2.1741 0.681036 0.561938 -0.282823 -0.777326
-2.74261 2.34448 -0.317441 0.700849 -0.598967 0.387362
-2.73097 2.32592 -0.157562 -0.716585 0.637387 -0.283275
-2.71764 2.34656 -0.0941772 0.783452 -0.560984 0.267394
-2.88029 2.32115 0.19085 0.889698 -0.456546 -0.00149238
-2.89046 2.47516 0.35244 0.706713 -0.509766 -0.490608
-2.70592 2.6261 -0.472467 0.787734 -0.25549 0.560535
-2.82864 2.57102 -0.106386 0.823255 -0.297274 0.48361
-2.76583 2.56023 0.0350675 0.74131 -0.666712 -0.0771665
-2.84539 2.58554 0.147775 0.818237 -0.57462 0.0173316
-2.85061 2.68222 0.446843 0.676004 -0.530137 -0.511833
-2.88049 2.78867 -0.164112 0.864009 0.47347 0.171215
-2.7303 2.74941 -0.0627421 -0.28834 -0.870986 0.397798
-2.84251 2.78565 0.117373 0.0838386 0.960069 0.266906
-2.6006 -0.532329 -0.41331 -0.0935896 0.443765 0.891243
-2.66867 -0.66031 -0.15071 -0.196263 0.91961 0.340292
-2.69491 -0.644496 -0.0414836 -0.303815 0.947302 0.101562
-2.54269 -0.66121 0.188568 0.20291 -0.957878 0.203218
-2.66825 -0.643069 0.331925 -0.100537 -0.842524 0.529193
-2.50122 -0.418876 -0.362933 -0.239748 0.364655 0.899749
-2.62283 -0.365857 0.428728 -0.179974 0.222876 -0.95809
-2.57472 -0.12112 -0.30316 -0.184022 0.0746302 0.980085
-2.68665 -0.205357 0.485669 0.0919117 0.0591693 0.994008
-2.5143 0.0141018 -0.487193 -0.0634804 0.272533 0.96005
-2.51479 -0.0244856 0.363909 0.221749 0.0372837 0.974391
-2.61247 0.198251 -0.306727 0.208762 -0.224465 -0.951858
-2.62803 0.125892 0.368904 0.204548 -0.0849862 0.97516
-2.57391 0.436681 -0.41761 0.168652 -0.00950269 -0.98563
-2.66614 0.382891 0.338553 0.0540702 -0.0665438 0.996317
-2.67597 0.62313 -0.440002 -0.163605 -0.0684988 0.984145
-2.54458 0.573108 0.462707 0.0910667 -0.0510646 0.994535
-2.60818 0.825075 -0.361175 -0.220809 0.10075 0.970099
-2.56919 0.711653 0.33512 0.0893336 -0.261897 0.960952
-2.63274 1.04984 -0.622122 -0.286101 0.241009 0.927395
-2.53352 0.968924 -0.444884 0.222177 -0.105485 -0.969283
-2.69098 0.961003 0.387232 0.252834 -0.000528045 0.967509
-2.66421 0.939186 0.506579 0.231328 -0.157471 0.960047
-2.52564 1.10906 -0.652395 -0.350731 0.246973 0.903323
-2.68213 1.25548 -0.399208 -0.102849 0.231378 0.967412
-2.61162 1.1887 0.428616 0.234809 -0.113684 0.965371
-2.6306 1.26315 0.56734 0.22413 -0.147552 0.963324
-2.5328 1.32679 -0.545412 -0.268835 0.150342 0.951381
-2.68334 1.32119 0.671746 0.148464 -0.0160924 0.988787
-2.54285 1.52266 -0.67648 -0.224565 0.150135 0.962824
-2.60695 1.6709 0.565091 0.108141 0.00534623 0.994121
-2.66513 1.85449 -0.528817 0.322365 -0.0725681 0.94383
-2.54585 1.75661 0.553324 -0.244688 0.241669 -0.939002
-2.63889 2.04651 -0.643183 -0.345558 0.161756 -0.924351
-2.57837 2.0934 0.565393 -0.0825769 0.0328597 0.996043
-2.59164 2.26271 -0.579895 0.335227 -0.373468 0.864954
-2.67879 2.28593 -0.337484 0.776516 -0.493617 0.391619
-2.6304 2.29934 0.497781 0.54747 -0.396613 -0.736868
-2.6945 2.29084 0.509798 0.418594 -0.148843 -0.895893
-2.66357 2.39632 -0.598651 -0.489103 0.562125 -0.666929
-2.65821 2.45459 -0.35236 0.623065 -0.691128 0.366239
-2.62357 2.47533 0.456774 -0.156621 0.750392 0.64217
-2.68297 2.49789 0.618651 -0.396957 0.226239 0.889517
-2.50365 2.53024 -0.514478 0.105548 -0.850967 0.514505
-2.6408 2.62824 -0.308589 0.505491 -0.68339 0.526742
-2.62327 2.54204 -0.254876 0.505491 -0.68339 0.526742
-2.59214 2.66767 -0.0461965 0.0842028 0.971994 -0.219405
-2.50474 2.5969 0.184289 -0.0430382 -0.867825 -0.495003
-2.50092 2.58731 0.412373 -0.208455 -0.875029 -0.436888
-2.53975 2.59175 0.665169 0.080025 -0.219152 -0.972403
-2.39406 -0.573572 -0.304969 -0.278393 0.794705 0.53939
-2.35985 -0.654288 -0.198598 0.166816 -0.877682 -0.449274
-2.39384 -0.556721 0.0652367 0.485428 -0.847693 0.213953
-2.47721 -0.6802 0.15336 0.19397 -0.952674 0.23407
-2.32049 -0.667238 0.470051 -0.413067 0.661631 -0.625795
-2.43422 -0.472595 -0.36646 0.414533 -0.268755 -0.869444
-2.37405 -0.490417 -0.184971 -0.508418 0.557963 0.655887
-2.33437 -0.332102 0.267435 0.423604 -0.192246 0.885213
-2.47644 -0.427957 0.49511 0.270615 -0.156963 0.949805
-2.42777 -0.260945 -0.337479 0.562286 -0.170813 -0.809109
-2.47624 -0.269709 -0.219213 0.85006 -0.253374 -0.461736
-2.38091 -0.161111 0.154701 0.747551 -0.258987 0.611632
-2.34265 -0.205097 0.433282 0.428321 -0.247647 0.869029
-2.3608 0.0776121 -0.474058 0.447675 -0.227757 -0.864704
-2.41898 -0.0533981 0.38303 0.338708 -0.155646 0.927928
-2.38588 0.288128 -0.490873 -0.291549 0.0665431 0.954239
-2.40792 0.272625 0.467791 -0.0488481 -0.117565 0.991863
-2.46868 0.344711 -0.434369 -0.26217 0.0944131 0.960392
-2.33141 0.423843 0.338935 0.103448 -0.0564113 0.993034
-2.33947 0.628783 -0.493601 -0.166622 -0.0214377 0.985788
-2.42985 0.544282 0.497772 -0.0115657 -0.0712192 0.997394
-2.45325 0.891714 -0.374082 -0.250608 0.0326055 0.967539
-2.30973 0.800357 0.442084 0.0840468 -0.016652 0.996323
-2.49485 0.998339 -0.331525 -0.21408 0.0579066 0.975098
-2.35199 0.928991 0.451394 0.154132 0.0490261 0.986833
-2.48329 1.26533 -0.408619 -0.375233 0.105626 0.920893
-2.32913 1.13307 0.301697 0.0880881 0.118386 0.989053
-2.377 1.33696 -0.540477 -0.425513 0.12876 0.895745
-2.48502 1.39783 -0.366975 -0.507532 0.2835 0.813658
-2.40254 1.46929 0.363173 0.362914 -0.0248253 0.931492
-2.445 1.33275 0.690169 0.328571 -0.0878606 0.940384
-2.42096 1.63692 -0.55685 -0.113964 0.250222 0.961458
-2.38653 1.68418 -0.481173 -0.194459 0.193509 0.961634
-2.47561 1.69278 0.393536 -0.288825 0.0908305 -0.953064
-2.3463 1.59663 0.544618 0.276525 -0.0645695 0.958835
-2.48691 1.88225 -0.663307 0.0142049 0.0104758 0.999844
-2.43033 1.74573 0.540008 0.110519 -0.147042 0.982937
-2.45935 1.97561 -0.554668 0.0652437 -0.00772434 0.997839
-2.39139 2.02607 0.688466 -0.0181535 -0.0466013 0.998749
-2.37577 2.27941 -0.594431 -0.0515621 -0.29149 0.955183
-2.42697 2.26297 0.689189 -0.0564326 -0.11327 -0.99196
-2.42946 2.40514 -0.660359 0.103915 -0.278331 0.954847
-2.48494 2.47366 -0.36487 0.165494 -0.973318 0.158946
-2.49412 2.40325 -0.206458 0.181617 -0.966782 0.179856
-2.45847 2.41069 0.140655 0.029871 -0.999547 -0.00369786
-2.34797 2.32418 0.303543 -0.48293 -0.747833 -0.455548
-2.30679 2.32212 0.613631 0.0337169 0.146329 0.988661
-2.40888 2.52201 -0.641424 -0.0441679 0.702815 -0.71
-2.37249 2.54528 -0.442843 -0.172101 -0.90684 0.384737
-2.31467 2.6191 -0.24969 0.0374044 0.868173 -0.49485
-2.4753 2.67237 0.00419672 0.136556 0.861352 -0.489311
-2.35966 2.57284 0.212032 -0.178027 0.936262 0.302852
-2.43751 2.66984 0.48854 0.410042 0.732848 0.542953
-2.46957 2.63338 0.598209 -0.330818 -0.738083 -0.588042
-2.35307 2.72083 0.0513947 -0.203051 0.976573 -0.0712423
-2.12136 -0.594551 -0.187783 0.593466 -0.760099 -0.264665
-2.10802 -0.605487 -0.0581551 0.677287 -0.73496 0.0334094
-2.1546 -0.649167 0.188707 -0.430987 0.877388 -0.21081
-2.16519 -0.414366 -0.200712 0.643968 -0.588627 -0.488695
-2.25998 -0.478677 0.071542 0.872976 -0.480703 -0.0826895
-2.18858 -0.452775 0.204987 0.662914 -0.667486 0.339127
-2.25411 -0.115378 -0.139505 -0.442861 0.46763 0.764982
-2.15351 -0.191946 0.0660951 0.877247 0.215113 0.429143
-2.21123 -0.196408 0.124692 0.766221 -0.259388 0.587898
-2.22948 0.00789199 -0.300888 -0.369174 0.305591 0.877681
-2.13665 0.0790541 -0.174628 -0.349724 0.40528 0.844655
-2.28801 0.0912844 0.242609 0.63674 -0.425681 0.642929
-2.2957 0.0387113 0.462826 -0.244938 0.266894 -0.93208
-2.11497 0.289894 -0.31411 -0.426454 0.261638 0.865842
-2.19347 0.267156 -0.164205 -0.49282 0.348949 0.797097
-2.1836 0.199228 0.276655 -0.645829 0.412092 -0.642717
-2.11175 0.173688 0.485445 -0.448374 0.146686 -0.881728
-2.29884 0.449264 -0.428423 0.166056 -0.234993 -0.957707
-2.23177 0.334818 -0.257885 -0.265416 0.362857 0.893246
-2.23344 0.371491 0.403309 0.203856 -0.0973706 0.974147
-2.10312 0.541645 -0.353102 -0.367504 0.147931 0.918182
-2.14882 0.570042 0.388048 0.304737 -0.0337401 0.951839
-2.20634 0.890935 -0.352254 -0.108633 0.170991 0.979265
-2.29143 0.790594 0.461071 0.181465 0.00130283 0.983397
-2.19599 1.00162 -0.377532 -0.304628 0.0320652 0.951932
-2.18147 0.986651 0.478231 0.0510302 -0.0694559 -0.996279
-2.20636 1.23425 -0.391415 -0.130674 0.00540505 0.991411
-2.17818 1.27291 0.322275 0.334389 0.117153 0.935125
-2.27896 1.38667 -0.429464 -0.444773 0.0126479 0.895554
-2.20011 1.34573 0.455336 0.257228 0.0650807 0.964157
-2.16244 1.63368 -0.53341 -0.467567 0.296153 0.832871
-2.24015 1.54025 -0.267177 0.678915 -0.13427 -0.721836
-2.12115 1.50866 0.292353 0.471473 0.088181 0.877461
-2.17224 1.68765 0.435979 0.407932 -0.198697 0.891129
-2.1665 1.78439 -0.682288 -0.255337 0.404704 0.878076
-2.1418 1.72207 -0.412464 -0.667006 0.303927 0.680243
-2.23299 1.8516 0.396516 -0.460396 0.382467 -0.801096
-2.22083 1.85565 0.548336 0.333962 -0.314739 0.888487
-2.19893 1.95565 -0.641744 0.125428 -0.0589983 -0.990347
-2.17207 2.00368 -0.47061 -0.470561 0.0458555 0.881175
-2.29216 2.02151 0.436096 -0.569134 0.218535 -0.792672
-2.21413 2.01119 0.616978 0.365967 -0.214195 0.905643
-2.21061 2.13966 -0.676436 -0.173423 -0.0617365 0.98291
-2.11517 2.25491 0.579184 0.377315 0.299551 0.8763
-2.21616 2.30635 -0.62003 0.145232 0.237853 -0.960382
-2.28233 2.35302 -0.461855 -0.245159 -0.804081 0.541619
-2.2655 2.3641 -0.129032 -0.548263 -0.828476 0.114174
-2.19928 2.47711 0.100718 -0.626899 -0.675991 -0.387342
-2.23769 2.46139 0.456783 -0.541108 -0.82159 -0.179422
-2.22967 2.3828 0.570982 -0.254219 -0.32373 -0.911357
-2.15864 2.55454 -0.240337 -0.114321 -0.817229 0.564861
-2.25284 2.54136 0.0177839 -0.066326 -0.680611 0.729637
-2.14108 2.56975 0.130768 -0.603433 -0.306823 -0.736021
-2.26417 2.78688 -0.111302 -0.70549 0.704241 -0.0795502
-2.18993 2.78773 0.007752 0.711848 -0.699055 -0.067785
-2.23081 2.86081 0.155768 -0.536794 0.826111 0.171444
-1.99943 -0.179815 -0.224983 0.185057 -0.235671 0.954051
-2.0542 -0.264781 -0.0694827 -0.404095 -0.158506 -0.900879
-1.91884 -0.263168 0.235606 0.147345 -0.218597 -0.964627
-1.93331 -0.0348892 -0.296227 -0.29081 0.135171 0.947184
-1.9711 0.0615026 0.12958 0.516032 -0.254502 0.817887
-1.92838 0.288155 -0.28251 -0.310602 0.20842 0.927409
-1.91629 0.148503 0.247899 0.557168 -0.0217537 0.830115
-1.90053 0.354426 -0.446269 -0.223695 0.255246 0.940643
-2.01027 0.401542 -0.220862 -0.37766 0.279755 0.882672
-2.01758 0.414676 0.295544 0.493817 -0.200045 0.846243
-2.06027 0.437647 0.43986 0.44025 -0.0356975 0.897165
-1.96444 0.534479 -0.491327 -0.322017 0.15039 0.934713
-2.02319 0.55293 -0.235005 -0.341961 0.215743 0.914613
-1.9518 0.593571 0.281851 0.371277 -0.0521399 0.927057
-1.96561 0.555853 0.301055 0.363166 -0.0910795 0.927262
-2.01001 0.895297 -0.458769 0.239966 -0.0917213 -0.966439
-2.02358 0.810919 -0.274068 -0.414494 0.177435 0.892587
-1.97295 0.711458 0.15977 0.71306 -0.441264 0.544822
-1.976 0.848145 0.421398 0.421834 -0.186561 0.887272
-2.0227 1.0213 -0.42779 0.307132 -0.055265 -0.950061
-2.03242 1.08893 0.381431 0.471097 -0.0460919 0.880876
-2.07556 1.11848 -0.47927 -0.111663 0.040267 0.99293
-1.91706 1.12772 0.428339 0.455315 0.0854791 0.886217
-1.9611 1.30009 -0.348043 -0.611392 -0.268839 0.744262
-2.08425 1.37844 -0.21816 -0.636042 -0.160727 0.75473
-1.9421 1.4235 0.0624882 0.798395 0.561047 0.218612
-1.93446 1.3745 0.191437 0.730799 0.176762 0.659309
-2.01908 1.37424 0.41415 0.36809 0.155828 0.916639
-1.98787 1.63436 -0.333435 0.720642 0.0909816 -0.687312
-2.05443 1.59842 -0.119407 0.981106 0.134664 -0.138911
-1.91353 1.51667 0.0205154 0.983695 0.178537 -0.0216395
-1.93489 1.52828 0.251553 0.790211 0.00554963 0.61281
-1.94238 1.65222 0.323703 0.659212 -0.0320786 0.751273
-2.00533 1.88082 -0.422555 0.835855 -0.333275 -0.436203
-1.99114 1.82792 -0.117181 0.869419 -0.328786 -0.368795
-2.06149 1.89978 -0.0871875 0.934912 0.0873008 -0.343973
-1.91146 1.89859 0.164438 0.918038 -0.150028 0.367012
-1.90312 1.81474 0.417179 0.656557 -0.0930501 0.748515
-1.94591 2.03505 -0.640766 -0.695692 0.161479 0.699955
-1.97559 1.9453 -0.245142 0.931361 -0.257302 -0.257609
-2.06101 1.92541 0.251653 0.781937 0.12452 0.610793
-2.08007 1.97079 0.694523 0.520861 -0.287977 0.8036
-1.9413 2.1084 -0.591948 0.725374 0.0543766 -0.686204
-2.06739 2.26301 -0.44024 -0.623462 -0.418852 0.660196
-1.91991 2.11942 -0.182939 0.918966 -0.119666 -0.375742
-1.96495 2.27387 -0.041194 0.746401 0.652315 -0.131798
-2.08122 2.24046 0.187739 0.544957 0.572311 0.612766
-2.06032 2.1249 0.335801 0.728555 0.00807659 0.684939
-1.99123 2.22832 0.557601 -0.57682 -0.121477 -0.807788
-1.9839 2.47906 -0.613244 -0.368364 -0.541945 0.755384
-2.02674 2.35995 -0.396211 -0.576015 -0.521884 0.629161
-2.08729 2.3057 0.0336338 0.455913 0.755704 0.470164
-2.02773 2.37283 0.392448 0.26705 0.699503 0.662858
-1.95025 2.4129 0.573099 -0.538063 0.190097 -0.821189
-2.02069 2.52691 -0.126105 -0.533571 -0.512023 -0.673152
-2.02443 2.66048 0.126829 -0.399179 0.084251 0.912994
-2.09634 2.88263 -0.2375 0.435972 -0.676552 0.593469
-2.06331 2.88514 0.0477241 -0.661777 0.749266 -0.0255485
-2.05209 2.74486 0.214883 0.391223 -0.556225 -0.733183
-1.94754 2.97484 -0.21219 -0.309256 0.80754 -0.502235
-1.94844 2.98766 0.0781652 -0.541281 0.840789 0.00942126
-1.93449 3.02786 0.129917 -0.552213 0.813578 0.182076
-1.87686 -0.278515 -0.219514 0.120105 0.0445615 0.991761
-1.8502 -0.145064 -0.0871152 0.380858 -0.869933 -0.313309
-1.81829 -0.277865 0.295868 0.222758 -0.138177 -0.965032
-1.73264 -0.0760881 -0.233219 0.19717 -0.0553182 -0.978807
-1.75368 0.0996389 0.0605135 0.917829 -0.301811 -0.257877
-1.73442 -0.0743792 0.238647 0.250242 -0.365717 -0.896454
-1.88337 0.195307 -0.123512 0.336186 -0.690982 -0.63994
-1.83742 0.160033 -0.0171731 0.645291 -0.484687 -0.59049
-1.72135 0.209576 0.114401 0.717767 0.170249 0.675149
-1.7778 0.323235 -0.158472 -0.677193 0.0487323 0.73419
-1.7512 0.499036 0.163311 0.664774 -0.113184 0.73842
-1.72284 0.584643 -0.213923 -0.641799 0.00447199 0.76686
-1.88121 0.575869 0.193102 0.737235 0.107961 0.666955
-1.86713 0.761097 -0.1977 0.650064 -0.418829 -0.634034
-1.70829 0.71064 0.22582 0.538702 -0.319273 0.779657
-1.70003 0.901016 -0.303599 -0.652761 0.0121089 0.757468
-1.71737 1.03809 -0.138144 0.855299 0.0996871 -0.508454
-1.80132 0.904382 0.136349 0.780916 -0.0637608 0.621373
-1.83893 1.06039 0.462049 0.60856 0.110125 0.785829
-1.82718 1.29152 -0.44748 -0.513666 -0.150225 0.844737
-1.76553 1.21954 -0.11198 0.769895 0.607072 -0.196786
-1.81463 1.14441 0.0316791 0.816125 0.279639 0.50571
-1.82873 1.22452 0.152331 0.891837 0.22341 0.393338
-1.87977 1.22279 0.385036 0.527179 0.289338 0.798978
-1.79369 1.48327 -0.328324 0.736476 0.60074 -0.31099
-1.75057 1.4647 -0.152558 0.871547 0.458187 -0.174557
-1.73254 1.43413 0.0728261 0.937907 0.197223 0.285367
-1.71513 1.4334 0.198421 0.842723 0.131451 0.522052
-1.82417 1.41811 0.354522 -0.622317 -0.225452 -0.749595
-1.80192 1.73856 -0.1145 0.952548 -0.00233573 -0.304379
-1.83886 1.72157 0.0677856 0.992389 0.0922608 -0.0815651
-1.76305 1.82113 0.169659 0.992008 0.00162848 -0.126162
-1.72745 2.07698 -0.472042 0.923613 -0.0418648 -0.381033
-1.87991 2.02062 -0.284762 0.931158 -0.186339 -0.313404
-1.72148 2.02678 0.0710987 0.928922 -0.342611 -0.140434
-1.86745 2.02339 0.124509 0.996111 -0.0369628 -0.0799774
-1.81856 1.92778 0.301703 0.696369 -0.092807 0.711658
-1.87145 2.23464 -0.363699 -0.688184 -0.148685 0.710138
-1.7195 2.16523 -0.118549 0.825108 -0.563654 0.0386183
-1.7413 2.22388 0.0656465 0.885652 -0.442301 -0.141385
-1.85262 2.15506 0.223997 0.766651 -0.0896354 0.635776
-1.75902 2.15527 0.435078 0.796217 -0.135086 0.589738
-1.79647 2.44108 -0.270002 0.575316 -0.498051 -0.648812
-1.73346 2.33206 0.0770055 0.804033 -0.575338 0.15006
-1.73988 2.40214 0.109518 -0.414058 0.467377 -0.781098
-1.82458 2.58385 -0.266464 -0.344887 0.0262418 0.938277
-1.72451 2.63347 0.26767 0.268037 0.213432 0.93947
-1.81821 2.78207 -0.242349 0.272653 -0.233213 0.933419
-1.82671 2.85022 0.110369 0.0501617 0.706095 0.706338
-1.73234 3.07384 -0.159032 -0.421225 0.846554 -0.325447
-1.78008 2.9624 -0.0631122 0.274622 -0.64622 0.712027
-1.74679 3.04455 0.11817 -0.252312 0.863174 0.437343
-1.69786 -0.282477 -0.239464 0.415235 -0.250001 -0.874688
-1.68681 -0.140645 0.00215642 0.966765 -0.112702 -0.229485
-1.50104 -0.117436 0.233897 0.586543 -0.504879 -0.633297
-1.51785 0.244931 -0.173203 0.801598 -0.22464 -0.554056
-1.65859 0.100208 -0.0705356 0.796814 -0.397696 -0.454889
-1.52077 0.262551 0.174484 0.984358 -0.16801 -0.0530246
-1.65318 0.355656 -0.222597 0.695678 -0.297628 -0.653796
-1.61024 0.432652 -0.0566639 0.983744 -0.177806 -0.0251606
-1.52571 0.413072 0.121172 0.96709 -0.216669 0.133388
-1.63217 0.560234 -0.110929 0.882381 -0.0854247 -0.462717
-1.61666 0.630866 -0.0358614 0.992157 0.0611723 0.109007
-1.55391 0.681606 0.252939 0.439445 -0.0715513 0.895415
-1.68366 0.708209 -0.295698 -0.626639 0.0161979 0.779141
-1.51231 0.773498 0.010512 0.981928 -0.0153406 -0.18863
-1.51431 0.849408 0.178515 0.972735 0.120573 0.198112
-1.53274 0.995506 -0.18891 0.976807 0.0328273 -0.211589
-1.56439 1.05351 -0.0485778 0.986238 0.129958 -0.102208
-1.6444 0.981069 0.198789 0.834543 0.214892 0.507306
-1.55189 1.24332 -0.151685 0.958324 0.276072 -0.073483
-1.64118 1.24427 -0.0976691 0.869984 0.487983 -0.0707138
-1.63116 1.23706 0.1811 0.864238 0.338048 0.372581
-1.50032 2.3336 -0.172349 0.608794 -0.711539 -0.350831
-1.56168 2.36227 0.0615675 -0.560869 0.729826 -0.390872
-1.66217 2.48304 0.217891 -0.357382 -0.0235087 -0.933663
-1.53857 2.54283 -0.203323 -0.42594 0.596211 0.68052
-1.57033 2.65062 -0.00462609 -0.604705 -0.600459 -0.523241
-1.60499 2.64335 0.269615 -0.0350209 -0.117851 0.992414
-1.54511 2.87217 -0.185471 0.219096 -0.364864 0.904915
-1.52819 2.71459 0.201771 0.194866 0.00769416 -0.9808
-1.52271 2.92036 -0.192668 0.248252 -0.235189 0.939711
-1.68927 3.00246 0.123405 0.145783 0.550879 0.821754
-1.53646 3.10474 -0.248651 -0.421468 0.631412 -0.65091
-1.58063 3.20942 -0.0473889 -0.438899 0.855517 -0.274695
-1.67676 3.15229 0.216574 -0.361993 0.930589 -0.0544476
-1.43507 2.60876 -0.278233 -0.25732 0.552407 0.792864
-1.355 2.5639 0.0994132 0.514674 -0.827303 0.225121
-1.31448 2.52917 0.129657 0.495851 -0.792495 0.355082
-1.48348 2.71551 -0.255832 -0.0479202 -0.0107743 0.998793
-1.31455 2.7886 0.159577 -0.345216 0.542665 0.765729
-1.45231 3.05051 -0.145669 0.190115 -0.646356 0.738972
-1.32017 3.02787 0.206346 0.015322 0.330412 0.943712
-1.38427 3.27196 -0.225326 -0.499357 0.675938 -0.541988
-1.32031 3.17139 -0.0871967 -0.438325 0.771189 -0.46167
-1.49342 3.22413 0.181279 -0.309159 0.947278 0.0841766
-1.12874 2.63337 -0.225723 0.422285 -0.771001 -0.476689
-1.25171 2.50429 0.0739597 -0.454651 0.840838 -0.293741
-1.25626 2.57967 0.217181 -0.171538 0.231864 -0.957504
-1.15714 2.83256 -0.231925 0.0616491 0.0630379 -0.996105
-1.17289 2.89477 -0.0219138 -0.646566 -0.743669 -0.170025
-1.24349 2.72518 0.220054 -0.24586 0.227838 -0.942148
-1.11507 2.90159 -0.289764 -0.0200956 0.285453 -0.958182
-1.13117 3.01155 0.107996 0.415621 0.347199 -0.840662
-1.21606 3.23895 -0.170132 -0.0490443 0.330285 -0.942606
-1.29861 3.14342 -0.0553738 0.721317 0.504908 -0.474099
-1.29433 3.26029 0.114925 -0.22317 0.80621 0.547925
-1.22117 3.45379 -0.229041 -0.51053 0.859843 0.00543877
-1.26433 3.39573 -0.0973208 -0.388297 0.90587 -0.169188
-1.25036 3.35453 0.256774 0.474893 -0.542839 -0.692677
-0.928015 2.79382 -0.100853 -0.376269 0.923583 0.0735928
-0.993998 2.77073 -0.0989427 -0.470051 0.876801 -0.101353
-1.05727 2.8789 0.19025 -0.108697 0.0587206 -0.992339
-0.930437 3.04754 -0.254618 0.144762 0.086337 0.985693
-1.09218 2.98971 0.205535 -0.140221 0.024446 -0.989818
-1.00047 3.19985 -0.216907 -0.00684655 -0.10747 0.994185
-1.08379 3.24075 0.134121 0.108154 0.427037 0.897743
-0.963746 3.41855 -0.231699 -0.0826101 0.384414 -0.919457
-0.917235 3.40043 0.0437353 0.162312 0.245484 -0.955716
-1.05866 3.48244 0.126036 -0.296687 0.945515 0.13408
-0.751871 2.88596 -0.249476 0.446499 -0.642363 -0.622904
-0.889014 2.73067 0.0870538 -0.455125 0.812424 -0.364457
-0.709355 2.74024 0.125946 -0.442674 0.855923 -0.267274
-0.769977 3.02225 -0.299539 -0.323545 0.0815207 0.942695
-0.897792 3.0402 0.0658054 0.31699 0.0740367 0.945535
-0.882935 2.94411 0.127223 -0.343484 0.330428 -0.879111
-0.774341 3.18539 -0.125507 0.760214 0.474722 0.443524
-0.821027 3.18083 0.196803 0.143651 0.100839 0.984477
-0.878064 3.35924 -0.14592 -0.135699 -0.505699 0.851971
-0.743805 3.41511 -0.0269257 -0.591387 0.793837 0.141719
-0.733509 3.45432 0.194895 0.270064 0.0246911 -0.962526
-0.854741 3.60225 -0.0257401 -0.278096 0.956314 0.0901398
-0.662564 2.91 -0.249232 -0.331389 0.694188 0.638972
-0.619279 3.02201 -0.0963716 -0.391908 0.780331 0.48733
-0.568325 2.9018 0.114875 -0.139114 0.838887 -0.526227
-0.580352 3.24382 -0.116208 0.509984 -0.386098 0.768664
-0.667759 3.10401 0.103187 0.484152 0.256734 -0.836471
-0.581246 3.40858 -0.129081 0.571319 0.0752121 0.817275
-0.654824 3.36124 0.229024 -0.292815 -0.0494273 0.954891
-0.603186 3.67226 -0.286738 -0.366153 0.930385 0.017751
-0.631478 3.62512 0.0365965 0.427978 -0.878995 -0.210241
-0.648167 3.59203 0.185485 0.163622 -0.567384 -0.807034
-0.484635 2.96361 -0.176986 -0.307459 0.829466 0.466322
-0.497381 3.06411 0.0381283 0.300681 0.490042 -0.818199
-0.385327 3.0415 0.210236 0.243906 0.677021 -0.694372
-0.34073 3.21063 -0.193923 0.0268139 -0.550171 -0.834621
-0.446717 3.24846 0.236196 0.217629 0.154026 -0.963802
-0.336892 3.30023 -0.272306 0.14643 -0.00472572 0.98921
-0.425241 3.36425 0.264677 -0.324672 0.0944792 0.941096
-0.48804 3.5684 -0.23875 -0.209591 0.216643 -0.953487
-0.479528 3.55609 0.0632176 0.134779 -0.902101 -0.409938
-0.441616 3.63144 0.20849 0.289234 -0.659417 -0.693912
-0.106795 3.04216 -0.214472 0.0222751 -0.7601 -0.649424
-0.240465 2.9933 0.0679271 -0.167067 0.985939 -0.00361457
-0.138962 3.01006 0.140305 -0.159334 0.913392 -0.374604
-0.184239 3.25414 -0.230959 -0.0030893 0.197343 0.98033
-0.186956 3.1469 0.284795 0.17917 -0.4628 0.868167
-0.233943 3.422 -0.179758 -0.00708348 -0.190632 0.981636
-0.188715 3.40925 0.267194 0.0470879 0.130604 0.990316
-0.198817 3.69978 -0.250633 0.0441637 0.587555 -0.807978
-0.276706 3.67123 -0.029156 0.0258162 -0.995897 0.0867347
-0.146519 3.64742 0.109034 0.0867221 -0.931736 -0.35263
0.0820925 3.0187 -0.245142 0.0842785 0.855022 0.511698
-0.0225156 2.97412 -0.0642859 0.0232526 -0.98488 -0.171668
-0.0412375 3.05695 0.191496 0.258445 -0.743441 0.616848
0.0223129 3.16776 -0.140072 0.093558 -0.742794 -0.662951
-0.089725 3.1358 0.0482512 0.389689 0.886428 0.249775
0.0874904 3.20532 0.174045 0.213104 -0.544991 0.810908
0.0908977 3.30922 -0.263265 -0.0106976 0.0135772 0.999851
0.0870733 3.34549 0.107955 0.91752 -0.278198 0.284187
0.0123027 3.5973 -0.269826 0.11909 -0.4057 0.906215
-0.0791638 3.60181 -0.0745055 0.238262 -0.969991 0.0484543
-0.00118816 3.61156 0.253283 0.186465 0.657389 0.730117
0.241557 2.92957 0.0326413 0.145445 -0.984681 0.0961755
0.111328 3.16744 -0.236214 0.133849 0.453082 0.881363
0.100599 3.20458 0.0547294 0.729455 -0.619293 0.290469
0.274351 3.2965 0.291999 0.135941 -0.136441 0.981277
0.16301 3.46268 -0.162999 0.273394 0.0238489 -0.961607
0.110725 3.4942 0.275681 -0.0609602 0.367916 0.927858
0.169607 3.63905 -0.147252 -0.0952473 0.982085 -0.162595
0.273517 3.581 -0.070842 -0.106463 0.992321 -0.0629666
0.173039 3.52486 0.219541 -0.0548395 0.500826 0.863809
0.158682 3.81855 0.0230876 0.147656 -0.976019 -0.159949
0.487343 3.10483 -0.241951 0.26961 -0.662316 -0.699033
0.420598 3.1611 -0.0802404 -0.128627 0.983707 0.125603
0.420635 3.17161 0.280377 0.121707 0.388644 -0.913314
0.423454 3.36492 -0.276081 0.0134785 -0.198804 0.979947
0.308932 3.48132 0.190383 -0.163586 0.444298 0.880817
