ply
format ascii 1.0
comment Created by Open3D
element vertex 863
property double x
property double y
property double z
property double nx
property double ny
property double nz
end_header
-3.83147 -0.444263 0.375043 -0.661127 0.333594 0.672031
-3.77652 -0.384927 0.640224 -0.255335 0.12566 0.958652
-3.82759 -0.166321 -0.63084 0.326832 -0.21379 0.920584
-3.81353 -0.215367 -0.41023 0.644975 -0.189972 0.740215
-3.83492 -0.207506 0.358191 0.76848 -0.259156 -0.585043
-3.7676 -0.187856 0.63667 0.315602 -0.111117 -0.942363
-3.75898 -0.048035 -0.644227 0.378475 -0.0772163 0.922385
-3.7551 -0.0233062 -0.392996 0.634531 -0.33891 0.69463
-3.78516 0.00482631 -0.163918 0.905381 -0.282913 0.316615
-3.83713 0.0307751 0.16468 0.882618 -0.385309 -0.2693
-3.75248 -0.0249104 0.448418 -0.611821 0.317879 0.724312
-3.8271 0.0164033 0.591322 -0.61119 0.217433 0.761032
-3.78571 0.151859 -0.425878 0.655882 -0.377904 0.653458
-3.84578 0.245113 -0.19394 0.91487 -0.318482 0.248156
-3.76158 0.159677 0.157447 0.891813 -0.385662 -0.236503
-3.75449 0.240967 0.372201 0.831693 -0.339497 -0.439349
-3.77133 0.364046 -0.362301 0.835376 -0.27116 0.478141
-3.77122 0.386861 -0.180861 0.935486 -0.15089 0.319529
-3.77226 0.423109 0.0351326 0.926742 -0.348388 -0.140625
-3.80244 0.435973 0.200525 0.886596 -0.272248 -0.373936
-3.8167 0.4162 0.35568 0.858949 -0.291949 -0.42068
-3.84924 0.631654 -0.218509 0.892798 -0.308553 0.328187
-3.75286 0.578961 -0.0194403 0.920813 -0.381483 0.0810856
-3.80424 0.576278 0.16383 0.86787 -0.382759 -0.316698
-3.82521 0.791923 -0.211333 0.872531 -0.402943 0.276271
-3.84563 0.784457 -0.0495169 0.926854 -0.364961 0.0880083
-3.78788 0.776692 0.150162 0.903913 -0.39564 -0.162514
-3.56862 -3.17886 -0.200737 0.880479 -0.39422 -0.26334
-3.64498 -3.17104 -0.0156699 0.844032 -0.501366 -0.190376
-3.63027 -3.22252 0.200675 0.825715 -0.211124 0.523088
-3.64379 -2.95332 -0.152764 0.962851 -0.2284 -0.144052
-3.58449 -3.02151 -0.00766747 0.977512 -0.201593 -0.061896
-3.5849 -2.99925 0.206009 0.934513 -0.24174 0.261243
-3.6122 -2.77203 -0.410026 0.776752 -0.148077 -0.612152
-3.57945 -2.77269 -0.156036 0.988842 -0.0827713 -0.123855
-3.61919 -2.84359 -0.0202375 0.994729 -0.100144 -0.0220146
-3.6418 -2.80614 0.173191 0.980582 -0.0613996 0.186248
-3.59158 -2.80988 0.435582 0.73899 -0.213348 0.639043
-3.63988 -2.55063 -0.393034 0.841756 -0.0793318 -0.533997
-3.63205 -2.61828 -0.223731 0.896675 -0.233835 -0.375892
-3.6372 -2.61657 -0.0451067 0.983337 -0.179704 0.0274889
-3.60872 -2.56584 0.246672 0.919983 -0.186808 0.344577
-3.62147 -2.64167 0.383893 0.856518 -0.20069 0.4755
-3.60643 -2.44288 -0.392429 0.826107 -0.123792 -0.549748
-3.57745 -2.4393 -0.174439 0.871418 -0.190033 -0.452237
-3.56137 -2.39566 -0.0372681 0.938469 -0.265791 -0.220524
-3.64315 -2.37647 0.23173 0.842456 -0.269972 0.466243
-3.60246 -2.42827 0.436521 0.704497 -0.240549 0.667698
-3.58674 -2.17607 -0.382174 0.72245 -0.268922 -0.636983
-3.56403 -2.20855 -0.185156 0.876615 -0.247763 -0.412505
-3.58829 -2.2174 0.226009 0.836509 -0.341277 0.428699
-3.61792 -2.23809 0.436404 0.66734 -0.207516 0.715259
-3.57305 -2.01246 -0.619187 -0.612444 0.20796 0.76267
-3.61204 -1.98832 -0.351613 0.794287 -0.229656 -0.562465
-3.57334 -2.02573 -0.233568 0.770744 -0.245395 -0.587992
-3.56388 -1.95283 0.238833 0.880184 -0.222103 0.41946
-3.61938 -1.97878 0.448405 0.643004 -0.137454 0.753427
-3.61379 -2.00275 0.581209 0.577934 -0.13517 0.804811
-3.6324 -1.7713 -0.648815 -0.39635 0.0573766 0.916305
-3.61682 -1.78334 -0.41058 0.801566 -0.0957744 -0.590186
-3.61765 -1.79166 0.37396 0.718329 -0.0452365 0.694231
-3.60604 -1.77249 0.574712 0.548569 -0.10165 0.829903
-3.64255 -1.59859 -0.636255 -0.31809 0.0300036 0.947586
-3.5823 -1.62001 -0.40578 0.761147 -0.165652 -0.627069
-3.58493 -1.61604 0.365704 0.654788 -0.143458 0.742073
-3.60801 -1.60495 0.58005 0.453475 -0.0938841 0.88631
-3.60918 -1.43538 -0.581302 -0.432278 0.114863 0.894395
-3.55656 -1.44949 -0.421268 -0.646188 0.060499 0.760777
-3.60076 -1.3523 0.393359 0.695749 -0.190102 0.692672
-3.58226 -1.38645 0.621387 -0.460025 0.220552 -0.860078
-3.62162 -1.15004 -0.586084 -0.125746 0.132536 0.983169
-3.59379 -1.16739 0.589671 0.402819 -0.11811 0.907627
-3.57621 -1.03745 -0.632151 -0.28142 0.137097 0.949741
-3.56557 -1.04725 0.589088 0.199243 -0.0132012 0.979861
-3.59189 -0.794666 -0.605853 -0.150687 0.0605001 0.986728
-3.61259 -0.791824 0.615503 0.10559 0.00962829 0.994363
-3.6399 -0.629057 -0.631354 0.154703 -0.0305717 0.987488
-3.61861 -0.637183 0.593613 0.00940452 0.00186051 0.999954
-3.57011 -0.372944 -0.618433 0.0297251 -0.0203852 0.99935
-3.6177 -0.371095 0.572305 -0.0338175 0.0750685 0.996605
-3.57322 -0.233538 -0.616358 0.125957 -0.0587186 0.990296
-3.55779 -0.15354 0.597427 -0.109178 -0.0632072 0.992011
-3.60195 0.00818424 -0.550404 0.36894 -0.187249 0.910396
-3.58058 0.0274715 0.560148 -0.214189 0.00653951 0.97677
-3.60182 0.180741 -0.574769 0.42788 -0.1903 0.883575
-3.63859 0.150586 -0.448551 0.670839 -0.300364 0.678053
-3.58343 0.20342 0.424418 -0.615531 0.00402094 0.788103
-3.62005 0.246398 0.619644 0.298672 -0.158535 -0.941096
-3.57321 0.388092 -0.606211 0.395379 -0.208822 0.894466
-3.56949 0.426266 -0.438487 0.650494 -0.324126 0.686876
-3.59332 0.392546 0.402671 0.801616 -0.223626 -0.55444
-3.5853 0.350756 0.64024 -0.290403 0.115436 0.949916
-3.60206 0.561874 -0.600625 0.548355 -0.314698 0.774772
-3.59075 0.592461 -0.423329 0.680597 -0.405067 0.610499
-3.59231 0.615455 -0.218613 0.743656 -0.414665 0.524432
-3.58999 0.596967 0.207094 0.822059 -0.483921 -0.300066
-3.57263 0.598515 0.432482 0.678842 -0.385026 -0.625243
-3.64847 0.588174 0.640634 0.678603 -0.301551 -0.66975
-3.55865 0.761731 -0.387875 0.685497 -0.368905 0.627696
-3.64342 0.753822 -0.173467 0.869454 -0.426862 0.248674
-3.57085 0.75963 -0.0279457 0.785484 -0.616951 0.0488496
-3.60127 0.832722 0.172258 0.904872 -0.28291 -0.318069
-3.55198 0.785694 0.387105 0.773259 -0.311516 -0.552294
-3.5732 1.04549 -0.428725 0.737273 -0.322978 0.593391
-3.57379 0.958353 -0.211205 0.824823 -0.429913 0.367207
-3.58592 0.978434 -0.0342081 0.881657 -0.449703 0.142994
-3.58306 0.953617 0.158875 0.890193 -0.430512 -0.149049
-3.58923 1.03598 0.391224 0.763141 -0.265854 -0.589014
-3.57402 1.18459 -0.233926 0.810295 -0.449126 0.376442
-3.6305 1.19778 0.00155968 0.950178 -0.311705 0.00117232
-3.61642 1.21664 0.212877 0.88946 -0.400273 -0.220552
-3.36682 -2.38835 -0.0159355 0.951219 -0.29854 -0.0778171
-3.41566 -2.24904 -0.157669 0.942326 -0.255856 -0.215778
-3.35116 -2.17056 -0.0241843 0.973546 -0.227377 0.0225364
-3.38592 -2.20093 0.201202 0.936502 -0.277388 0.214522
-3.37517 -2.02587 -0.395037 0.831913 -0.161807 -0.530791
-3.3961 -1.96742 -0.247419 0.961602 -0.0828021 -0.261657
-3.35095 -1.9607 -0.0133798 0.981088 -0.189081 0.0414032
-3.41638 -1.95667 0.213639 0.932348 -0.0986499 0.347845
-3.42285 -2.02451 0.397155 0.785023 -0.211938 0.582083
-3.39299 -1.82728 -0.405011 0.846733 -0.123658 -0.517448
-3.42531 -1.83613 -0.155363 0.909563 -0.23188 -0.344856
-3.44493 -1.83808 -0.0288615 0.926013 -0.359072 -0.11648
-3.43261 -1.78907 0.173256 0.934814 -0.205682 0.289514
-3.35301 -1.78708 0.383959 0.886565 -0.157319 0.435032
-3.44013 -1.62477 -0.391665 0.75392 -0.0933234 -0.650304
-3.35533 -1.57621 -0.179254 0.84006 -0.212589 -0.499104
-3.38017 -1.63553 -0.0368101 0.955637 -0.262001 -0.134587
-3.35402 -1.56105 0.153268 0.872337 -0.25199 0.418962
-3.38513 -1.56481 0.351622 0.770116 -0.196543 0.606871
-3.39327 -1.3797 -0.403812 0.775213 -0.193099 -0.601464
-3.43253 -1.39588 -0.217481 0.814364 -0.418116 -0.40248
-3.38298 -1.3919 0.205671 0.919047 -0.272249 0.285014
-3.38665 -1.43121 0.385799 0.728346 -0.224585 0.647359
-3.42614 -1.1779 -0.569292 -0.527592 0.263335 0.807652
-3.36542 -1.23672 -0.355444 0.779257 -0.27491 -0.56319
-3.42777 -1.21127 -0.167543 0.93319 -0.285815 -0.217866
-3.38331 -1.21218 0.209382 0.901635 -0.193126 0.386984
-3.44969 -1.19914 0.373986 0.660519 -0.21364 0.719773
-3.38396 -1.16367 0.58097 0.591185 -0.231722 0.772532
-3.38215 -0.97219 -0.600072 -0.405805 0.185911 0.894852
-3.3516 -0.969584 -0.403072 0.728835 -0.158852 -0.666007
-3.42945 -0.979576 0.429538 0.621222 -0.177905 0.763173
-3.38635 -0.995231 0.613424 -0.460907 0.135308 -0.877073
-3.44221 -0.785266 -0.591999 -0.293121 0.0905905 0.951774
-3.40312 -0.76733 -0.419485 -0.599434 0.0962187 0.79462
-3.42973 -0.77966 0.354516 0.650523 -0.132516 0.747836
-3.35723 -0.829592 0.55979 0.511944 -0.06589 0.856488
-3.41179 -0.637318 -0.560779 -0.391943 0.0864823 0.915916
-3.36756 -0.570726 0.418544 0.510134 -0.225035 0.830134
-3.39511 -0.5894 0.595587 0.294989 -0.205227 0.933201
-3.44349 -0.380702 -0.597291 -0.185046 0.00451014 0.98272
-3.44738 -0.35517 0.581319 0.0921882 -0.084729 0.99213
-3.41033 -0.181455 -0.635322 -0.0683495 -0.0271614 0.997292
-3.41209 -0.188818 0.578825 0.117751 -0.0415918 0.992172
-3.40088 -0.0165431 -0.55963 0.0923573 -0.0254203 0.995401
-3.39348 0.0354135 0.610359 0.0382453 -0.0435339 0.99832
-3.42733 0.187647 -0.643376 0.0384891 -0.0821496 0.995877
-3.38744 0.226715 0.640927 0.0013881 0.0117013 0.999931
-3.37207 0.424717 -0.591305 0.125091 -0.0795804 0.988949
-3.39313 0.373118 0.649713 -0.0609242 0.0317088 0.997639
-3.42201 0.63718 -0.568342 0.336828 -0.141852 0.930819
-3.35199 0.572692 -0.445908 0.264803 -0.28813 0.92025
-3.41069 0.623433 0.420202 -0.40842 0.18785 0.893255
-3.36734 0.632551 0.612213 -0.144719 0.036268 0.988808
-3.35017 0.81098 -0.589552 0.315021 -0.21452 0.924523
-3.42616 0.767726 -0.414063 0.753264 -0.305657 0.582381
-3.35725 0.788443 0.375445 -0.635367 0.136453 0.760059
-3.38115 0.786255 0.616921 -0.322081 0.231114 0.918069
-3.35067 1.00167 -0.632223 -0.529704 0.120772 -0.83954
-3.41492 0.963901 -0.169038 0.902975 -0.350157 0.249051
-3.42022 1.04781 0.248533 0.825913 -0.30441 -0.474554
-3.38996 0.973538 0.583116 -0.568904 0.201196 0.797413
-3.36294 1.23192 -0.417669 0.779489 -0.398072 0.483668
-3.36495 1.17361 -0.231168 0.789876 -0.466729 0.397818
-3.36708 1.21561 -0.0406472 0.874533 -0.447929 0.18588
-3.35192 1.24827 0.20152 0.77486 -0.472226 -0.420231
-3.44546 1.19342 0.396686 0.773673 -0.334722 -0.53795
-3.3677 1.43961 -0.395064 0.787501 -0.299321 0.538747
-3.42474 1.40323 -0.161506 0.900015 -0.411505 0.143658
-3.43656 1.35063 -0.0468335 0.920103 -0.389483 0.0413945
-3.39542 1.38304 0.24951 0.758661 -0.563546 -0.326878
-3.4379 1.40253 0.383494 0.705345 -0.385718 -0.594735
-3.43135 1.64383 -0.19468 0.937407 -0.317551 0.142929
-3.38824 1.56263 -0.000287506 0.850806 -0.525475 -0.00218876
-3.35704 1.55606 0.197501 0.838762 -0.464705 -0.283774
-3.18469 -1.56275 -0.158428 0.912682 -0.271528 -0.305424
-3.17059 -1.60677 -0.00294719 0.935465 -0.35306 -0.0159538
-3.16 -1.57912 0.234296 0.910227 -0.282611 0.302684
-3.18486 -1.43264 -0.1809 0.942515 -0.25332 -0.217933
-3.21917 -1.39931 -0.00656392 0.979337 -0.114548 -0.166666
-3.15844 -1.37355 0.231057 0.876253 -0.307368 0.371087
-3.21211 -1.19321 -0.404327 0.743192 -0.345215 -0.573142
-3.1559 -1.22215 -0.218882 0.916674 -0.207663 -0.341445
-3.17585 -1.19726 0.00924443 0.93713 -0.342358 -0.0676648
-3.16439 -1.22215 0.157403 0.935361 -0.216463 0.27972
-3.24548 -1.165 0.400807 0.652032 -0.365689 0.664173
-3.19466 -0.974877 -0.421356 0.790213 -0.32032 -0.522454
-3.19133 -1.0138 -0.186457 0.900126 -0.212012 -0.380557
-3.22609 -1.04595 -0.019745 0.902364 -0.404795 -0.147921
-3.18442 -1.0433 0.179775 0.794761 -0.306758 0.523694
-3.23137 -1.02582 0.447119 0.632582 -0.244162 0.735
-3.1611 -0.789324 -0.371602 -0.659194 0.162838 0.73413
-3.17356 -0.751799 -0.192573 0.763399 -0.361281 -0.535441
-3.23163 -0.769867 0.225471 0.844868 -0.138732 0.516673
-3.16448 -0.820098 0.371564 0.683707 -0.266544 0.679338
-3.16398 -0.607451 -0.563934 -0.578843 0.258598 0.773349
-3.1621 -0.563758 -0.423646 -0.469529 0.256589 0.844811
-3.19743 -0.604993 -0.225235 0.786803 -0.402843 -0.46761
-3.17303 -0.615654 0.206964 -0.492168 0.819428 -0.293784
-3.20017 -0.563571 0.649465 0.376417 -0.172079 0.910329
-3.20322 -0.390192 -0.597354 -0.352733 0.201858 0.913692
-3.18093 -0.403676 -0.397932 -0.449083 0.291859 0.844478
-3.22352 -0.398003 0.405238 0.41384 -0.302467 0.858633
-3.20102 -0.396121 0.635112 0.297126 -0.182076 0.937318
-3.20793 -0.241723 -0.565692 -0.355007 0.0913612 0.930389
-3.18517 -0.16989 -0.369646 -0.385586 0.287418 0.876764
-3.2375 -0.179196 0.425149 -0.270177 0.10136 -0.957461
-3.17215 -0.242697 0.619498 0.318938 -0.131097 0.938665
-3.18111 -0.00329971 -0.55246 -0.287045 0.147709 0.94646
-3.23187 0.0484362 0.649725 0.20344 -0.0996024 0.974008
-3.19447 0.185151 -0.580079 -0.159568 0.100714 0.982036
-3.16498 0.151793 0.566797 0.245106 -0.110472 0.963182
-3.15463 0.437119 -0.614375 -0.108095 0.000174189 0.994141
-3.16073 0.446671 0.550361 0.0744747 0.00553122 0.997208
-3.24502 0.615923 -0.568665 0.110153 0.0160742 0.993785
-3.23415 0.648312 0.599438 -0.142657 0.0401354 0.988958
-3.16077 0.768907 -0.553979 0.046791 -0.0715545 0.996339
-3.18817 0.755613 0.618045 -0.221441 0.0738045 0.972377
-3.21895 1.02242 -0.556782 -0.380997 0.14101 -0.91376
-3.21714 1.0393 -0.388487 0.590076 -0.233274 0.772912
-3.20346 1.01645 0.413143 -0.520908 0.269069 0.810097
-3.22095 0.979824 0.611835 -0.467966 0.134937 0.873384
-3.1603 1.24555 -0.64577 0.48087 -0.19713 0.854344
-3.23495 1.22345 -0.421919 0.70079 -0.28421 0.654307
-3.24315 1.18954 0.374956 -0.566809 0.313841 0.761729
-3.24073 1.17602 0.569763 -0.508469 0.329438 0.795569
-3.16759 1.4395 -0.623066 0.544557 -0.184327 0.818218
-3.21948 1.44943 -0.249855 0.854834 -0.410499 0.317411
-3.23337 1.44852 0.157298 0.83394 -0.474395 -0.281944
-3.17783 1.37 0.554092 -0.614205 0.327866 0.717814
-3.2083 1.55948 -0.364405 0.75589 -0.433274 0.490819
-3.16401 1.64602 -0.202411 0.803566 -0.488276 0.340395
-3.16461 1.64764 0.0141632 0.858077 -0.502506 -0.105788
-3.16264 1.58904 0.209373 0.787939 -0.45279 -0.417293
-3.15746 1.55193 0.441848 -0.645927 0.341744 0.682635
-3.2166 1.82562 -0.382646 0.75804 -0.468285 0.453966
-3.18567 1.78457 -0.226119 0.736859 -0.564931 0.371338
-3.18885 1.77411 0.00980195 0.871701 -0.484746 -0.0718231
-3.16312 1.84545 0.156144 0.874322 -0.277853 -0.397943
-3.21422 1.79687 0.395152 0.815727 -0.326244 -0.477654
-3.21357 1.98122 -0.208724 0.92576 -0.305607 0.222648
-3.19124 1.97649 0.0408236 0.965063 -0.261966 0.00527445
-3.23822 2.04312 0.15967 0.960647 -0.264108 -0.0860512
-3.0197 -1.02156 -0.233246 0.895015 -0.347694 -0.279389
-3.04619 -1.00586 0.024188 0.936787 -0.328462 0.120592
-2.97632 -1.04703 0.23791 0.916063 -0.372338 0.148974
-3.02696 -0.76246 -0.202509 0.807693 -0.474616 -0.349817
-2.97811 -0.753963 0.0460633 0.850139 -0.524313 -0.0485707
-2.96094 -0.756939 0.209196 -0.638256 0.766564 -0.0707709
-2.99055 -0.610793 -0.426156 0.397483 -0.615459 -0.680601
-2.98575 -0.639291 -0.157421 0.879722 -0.438225 -0.184519
-2.96662 -0.612429 0.0137094 -0.261121 0.955993 0.133767
-3.02697 -0.622631 0.193008 0.386272 -0.791531 0.473575
-3.02968 -0.616853 0.435451 0.415526 -0.716978 0.559715
-3.04611 -0.403548 -0.354191 0.535443 -0.329434 -0.777672
-3.02165 -0.350603 0.412171 0.292259 -0.279149 0.914691
-3.0097 -0.155257 -0.357223 -0.240323 0.154904 0.958253
-3.02057 -0.153519 0.363461 0.296995 -0.0796959 0.951548
-2.98906 -0.0244421 -0.628193 -0.266643 0.113972 0.957033
-2.95006 -0.0251403 -0.364419 -0.184255 0.18504 0.965303
-2.96682 -0.0257001 0.350737 0.242103 -0.0529573 0.968804
-3.01543 0.0260898 0.610186 0.407629 -0.0645438 0.910864
-3.00772 0.161125 -0.627172 -0.294968 0.148922 0.943831
-3.0348 0.192388 -0.422872 -0.26876 0.234529 0.934218
-3.01379 0.151191 0.394657 0.28612 -0.170904 0.942829
-2.96878 0.154663 0.570093 0.320966 -0.13489 0.937436
-2.9502 0.388146 -0.606477 -0.277355 0.000467306 0.960768
-2.97567 0.372368 -0.387015 -0.245525 0.0597894 0.967545
-3.04766 0.360569 0.424155 0.2552 -0.0244044 0.96658
-3.03351 0.398573 0.600421 0.318707 -0.0661416 0.945543
-3.03054 0.588645 -0.587087 -0.116504 0.0804138 0.989929
-3.00588 0.636576 0.595226 0.0357592 -0.164442 0.985738
-2.97389 0.760816 -0.565678 -0.12662 0.0288159 0.991533
-3.01 0.756948 0.637286 0.0420966 -0.0124839 0.999036
-2.98083 0.987332 -0.620609 0.0933402 0.00715913 0.995609
-3.00858 1.03362 0.58089 0.0171288 0.0502001 0.998592
-2.95915 1.18822 -0.557112 0.150484 -0.043059 0.987674
-2.98303 1.24595 0.641555 -0.208907 0.0577379 0.97623
-3.03961 1.36544 -0.625414 0.369324 -0.167556 0.91407
-3.02961 1.37687 -0.445396 0.501438 -0.338081 0.796405
-2.99008 1.35932 0.389425 -0.510663 0.268923 0.816642
-3.03155 1.42427 0.581245 -0.516546 0.160139 0.841151
-3.03081 1.64659 -0.612964 0.45756 -0.378822 0.804446
-3.03218 1.62467 -0.39051 0.637127 -0.366111 0.678257
-3.03062 1.62015 0.395439 0.768226 -0.273617 -0.57876
-2.97857 1.61718 0.615038 -0.436657 0.226463 0.870658
-2.96306 1.81792 -0.577626 0.452205 -0.218495 0.864737
-2.95488 1.75337 -0.240736 0.727746 -0.44405 0.522691
-2.95616 1.75776 0.242589 0.810234 -0.270919 -0.519734
-3.00883 1.81494 0.611647 -0.534343 0.299395 0.790468
-2.99223 1.97443 -0.402494 0.657978 -0.346417 0.668626
-2.99105 2.04418 -0.216097 0.732847 -0.37276 0.569197
-2.99205 2.03058 0.0455445 0.856118 -0.504596 -0.111553
-3.02733 1.98224 0.225685 0.790424 -0.386316 -0.475384
-2.9773 2.00516 0.396785 0.721217 -0.378979 -0.579846
-3.00484 2.2367 -0.418746 0.715858 -0.408458 0.566311
-3.01875 2.18563 -0.1913 0.811876 -0.540841 0.219881
-2.98325 2.22406 -0.045263 0.796668 -0.604211 -0.0157968
-3.01255 2.19666 0.244763 0.799046 -0.446663 -0.402515
-3.04594 2.17913 0.356452 0.713023 -0.41726 -0.563465
-3.03872 2.39067 -0.243933 0.808818 -0.491364 0.323072
-3.01817 2.38766 0.0131358 0.870719 -0.472518 0.136292
-2.98739 2.42473 0.222994 0.843257 -0.42831 -0.324759
-2.78147 -0.567189 -0.412865 0.191492 -0.616092 -0.764043
-2.81904 -0.630429 -0.1828 0.251085 -0.942552 -0.220344
-2.83188 -0.61714 -0.00756624 0.266671 -0.956461 -0.118613
-2.80482 -0.577112 0.222515 0.0998801 -0.892983 0.438868
-2.83947 -0.645151 0.39479 0.385956 -0.670245 0.633884
-2.77835 -0.447684 -0.368664 0.144308 -0.517283 -0.84356
-2.77186 -0.372507 0.414409 0.0749662 -0.133588 0.988198
-2.8107 -0.238227 -0.423981 -0.090978 0.105774 0.99022
-2.76121 -0.223888 0.407815 0.145499 -0.178289 0.973161
-2.80484 -0.00832789 -0.414542 -0.0938175 0.0943855 0.991105
-2.7868 -0.0180424 0.38352 0.190593 -0.052404 0.980269
-2.75783 0.158514 -0.399947 -0.190057 0.0578186 0.980069
-2.7941 0.197893 0.399757 0.20575 -0.067301 0.976288
-2.83271 0.383371 -0.597004 -0.33887 0.118515 0.933339
-2.77669 0.442222 -0.398331 -0.306671 0.0984651 0.946709
-2.83785 0.430703 0.374229 0.354902 -0.137735 0.924702
-2.77207 0.418157 0.585904 0.281339 -0.134928 0.950075
-2.79488 0.588 -0.590263 -0.254806 0.129113 0.958334
-2.75132 0.608415 -0.408988 -0.274086 0.045766 0.960616
-2.8022 0.610982 0.3688 0.344114 -0.124775 0.9306
-2.82749 0.628064 0.619454 0.290774 -0.2165 0.931975
-2.79511 0.816655 -0.649079 0.321427 -0.132879 -0.937565
-2.80782 0.751394 -0.355454 -0.299304 0.230972 0.92578
-2.76327 0.833378 0.390683 0.397655 -0.117377 0.909996
-2.75347 0.824212 0.583771 0.330006 -0.165699 0.929322
-2.79083 1.04645 -0.637062 -0.189716 0.113865 0.975214
-2.75742 0.994868 0.617005 0.377277 -0.202108 0.903778
-2.84323 1.21679 -0.618116 -0.0927857 -0.00973479 0.995639
-2.75338 1.17896 0.641489 0.103106 -0.138407 0.984994
-2.7957 1.35909 -0.607853 -0.0886226 -0.0934606 0.991671
-2.84369 1.35664 0.62224 -0.0586204 0.0468091 0.997182
-2.79914 1.5855 -0.571297 0.10811 -0.08507 0.990492
-2.8234 1.55979 0.613806 -0.22092 0.148269 0.963956
-2.76256 1.76713 -0.589974 0.203654 -0.0319437 0.978522
-2.79862 1.77173 -0.369918 0.378147 -0.326836 0.866131
-2.84415 1.81607 0.398261 -0.576807 0.183869 0.795918
-2.78597 1.80552 0.601998 -0.266304 0.104652 0.958191
-2.83858 1.99251 -0.601257 0.534622 -0.165956 0.828636
-2.77721 2.0107 -0.382654 0.653315 -0.252174 0.713854
-2.76392 1.97035 0.385865 0.529236 -0.31407 -0.788206
-2.77014 1.95882 0.580313 -0.418605 0.187483 0.888606
-2.84523 2.20614 -0.595779 0.622937 -0.18513 0.76005
-2.78823 2.1746 -0.19942 0.917987 -0.157823 0.363855
-2.7586 2.20529 0.152813 0.695813 -0.680894 -0.228532
-2.82413 2.16803 0.625717 -0.42445 0.316363 0.848385
-2.83028 2.4365 -0.390432 0.734328 -0.574547 0.361467
-2.75247 2.38135 -0.173037 -0.558831 0.814307 -0.156883
-2.75968 2.35208 -0.0152483 -0.746618 0.658711 -0.0930618
-2.77757 2.44054 0.221314 0.739066 -0.653641 -0.162893
-2.80366 2.4089 0.424508 0.579387 -0.324504 -0.747668
-2.78441 2.58615 -0.359353 0.549728 -0.653816 0.519926
-2.8491 2.5749 -0.173037 0.762674 -0.535411 0.362854
-2.76196 2.62816 0.00445515 -0.51293 0.839902 -0.177391
-2.79978 2.60293 0.196972 0.889898 -0.408603 -0.202793
-2.77167 2.62854 0.412284 -0.298637 0.794674 0.528497
-2.76727 2.83518 -0.15308 0.163685 -0.912644 0.374552
-2.82269 2.78388 -0.0431589 0.703118 -0.703361 0.104448
-2.77061 2.83118 0.24244 0.529816 -0.764311 -0.367592
-2.56619 -0.575824 -0.426008 -0.278264 0.664299 0.69374
-2.56592 -0.559157 -0.21799 0.217735 -0.854875 -0.470936
-2.57525 -0.640271 0.0400889 -0.246386 0.964924 0.0906418
-2.60714 -0.616994 0.177856 0.187208 -0.96503 0.183495
-2.55815 -0.649421 0.418087 -0.25694 0.52472 -0.811573
-2.59102 -0.399667 -0.42185 -0.234727 0.208714 0.94939
-2.63569 -0.438874 0.378633 0.203139 -0.367506 0.907565
-2.61348 -0.192571 -0.431822 -0.197324 0.0915879 0.976051
-2.6142 -0.158209 0.42087 0.144143 -0.0622858 0.987595
-2.58355 -0.0325788 -0.407642 -0.141127 0.192622 0.971071
-2.58158 0.0357007 0.449408 0.0879293 -0.122213 0.988601
-2.61652 0.237477 -0.449864 -0.144491 0.0838582 0.985946
-2.57068 0.219856 0.364589 0.124621 -0.0153333 0.992086
-2.60905 0.448818 -0.375285 -0.171972 -0.0209582 0.984879
-2.61957 0.442235 0.421737 0.136651 -0.0528562 0.989208
-2.57348 0.620025 -0.418255 -0.288724 0.108493 0.951245
-2.60792 0.628756 0.354 0.183049 -0.0916852 0.978819
-2.61244 0.820537 -0.436089 -0.326865 0.193351 0.925081
-2.63974 0.772742 0.367881 0.304183 -0.0622853 0.950575
-2.60236 1.00922 -0.613846 -0.307395 0.146556 0.940229
-2.55487 0.974941 -0.384217 -0.28964 0.205772 0.934755
-2.64484 0.976191 0.354985 0.283054 -0.16904 0.94409
-2.62075 0.995982 0.594686 0.357383 -0.205493 0.911071
-2.57724 1.21566 -0.57875 -0.325874 0.0552838 0.943796
-2.59885 1.24029 -0.449298 -0.238175 0.0438713 0.970231
-2.59783 1.18308 0.354914 0.247078 -0.101741 0.96364
-2.55382 1.21464 0.57816 0.359621 -0.117677 0.925649
-2.58822 1.37359 -0.587777 0.310639 -0.11511 -0.943532
-2.55768 1.4262 0.596078 0.288076 -0.0804842 0.954219
-2.59917 1.62304 -0.551547 -0.0234342 0.0558724 0.998163
-2.6254 1.63077 0.572998 0.0441482 0.0455046 0.997988
-2.55908 1.82371 -0.577039 0.00499895 -0.0513807 0.998667
-2.57042 1.76321 0.626321 0.0380147 0.059235 0.99752
-2.62599 2.02557 -0.569769 0.335754 -0.124681 0.933662
-2.55369 1.99818 0.558186 -0.0635287 -0.0156937 0.997857
-2.61519 2.24438 -0.643987 0.18878 -0.163147 0.968373
-2.64674 2.20269 -0.411747 0.325476 -0.488714 0.809459
-2.64147 2.22842 0.401394 -0.398772 0.464163 0.790907
-2.57886 2.16107 0.554212 -0.183398 0.209432 0.960471
-2.64125 2.35839 -0.575973 0.336271 -0.329906 0.882091
-2.63727 2.3539 -0.418029 0.514059 -0.6162 0.596692
-2.63758 2.39305 0.395547 -0.499157 0.413234 0.76163
-2.62693 2.35314 0.595174 -0.311778 0.167134 0.93534
-2.63676 2.57866 -0.632804 0.138708 -0.66073 0.737697
-2.56727 2.60646 -0.353768 0.106787 0.935499 -0.336805
-2.5852 2.60513 -0.209652 0.0267709 -0.867975 0.495886
-2.6201 2.55854 -0.0320855 -0.249437 -0.966442 -0.0614092
-2.55924 2.63158 0.228285 0.0427527 -0.966457 -0.253243
-2.58027 2.55587 0.447607 0.136418 0.614125 0.77733
-2.64122 2.64924 0.606641 0.549599 -0.254615 -0.795684
-2.35445 -0.57925 -0.39341 -0.505817 0.493818 0.707314
-2.44243 -0.574278 -0.160566 0.269709 -0.922564 -0.27592
-2.38168 -0.611585 -0.0104676 0.339969 -0.919727 -0.196274
-2.4185 -0.626316 0.163198 0.267955 -0.949572 0.162825
-2.36853 -0.594307 0.364283 -0.435079 0.532056 -0.726376
-2.41564 -0.350069 -0.360893 -0.437942 0.251414 0.863133
-2.38623 -0.363289 -0.191774 -0.631536 0.287887 0.719919
-2.41594 -0.425583 0.208993 0.786439 -0.40865 0.463162
-2.36826 -0.352626 0.364824 0.511016 -0.174605 0.84165
-2.42322 -0.187883 -0.414963 -0.298674 0.179519 0.937319
-2.35392 -0.240469 -0.196844 -0.55367 0.263865 0.789826
-2.40777 -0.189205 0.240157 0.466983 -0.134158 0.87403
-2.35491 -0.154818 0.380167 0.424546 -0.136355 0.89508
-2.35467 -0.0473267 -0.375527 -0.40101 0.21984 0.889304
-2.41135 -0.0415211 0.388175 0.315447 -0.183111 0.931109
-2.37845 0.151156 -0.374388 -0.220389 0.122907 0.967638
-2.40386 0.224471 0.365482 0.175354 -0.104606 0.978932
-2.44554 0.353125 -0.435444 -0.175817 0.0538095 0.982951
-2.44065 0.400524 0.400696 0.0459152 -0.033137 0.998396
-2.37107 0.623918 -0.41081 -0.0859366 0.0207406 0.996085
-2.41386 0.585027 0.422486 0.0323323 -0.0318145 0.998971
-2.38497 0.838957 -0.390641 -0.096647 0.0922578 0.991034
-2.36028 0.771433 0.420629 0.0705665 -0.0187569 0.997331
-2.4215 0.962485 -0.428081 -0.225184 0.144228 0.963582
-2.42929 1.03233 0.437267 -0.24035 0.158649 -0.957634
-2.43154 1.22258 -0.436483 -0.338557 0.140266 0.930433
-2.40511 1.16817 0.445042 0.286628 -0.0930758 0.95351
-2.35563 1.40136 -0.552592 -0.305719 0.169172 0.936972
-2.36824 1.43841 -0.378643 -0.433562 0.145539 0.889293
-2.35002 1.41793 0.385569 0.390228 -0.037798 0.919942
-2.41073 1.35306 0.568689 0.330097 -0.0867984 0.939948
-2.3673 1.6282 -0.615243 -0.304871 0.202549 0.930606
-2.36887 1.64241 -0.432203 -0.333035 0.198469 0.921791
-2.35599 1.59774 0.407755 0.430351 -0.102017 0.896878
-2.39854 1.57264 0.58132 0.361982 -0.0927872 0.927556
-2.40287 1.75701 -0.613229 -0.220933 0.158346 0.962349
-2.43981 1.82487 0.564191 -0.000398919 -0.0750247 0.997182
-2.4251 2.02997 -0.574078 -0.0802749 -0.0283141 -0.996371
-2.43811 1.9842 0.583715 -0.0653109 0.0474459 0.996736
-2.37542 2.2419 -0.613795 0.05186 -0.197597 0.978911
-2.39537 2.19826 0.563588 -0.0475244 0.119645 0.991679
-2.36105 2.38187 -0.555833 -0.105331 -0.562923 0.81977
-2.37195 2.40944 -0.390507 -0.172109 -0.789332 0.58935
-2.39141 2.37575 -0.20847 0.162971 0.973779 -0.15873
-2.37802 2.37982 0.182837 0.36193 -0.908654 -0.208215
-2.37332 2.43832 0.44872 -0.197534 -0.735232 -0.648394
-2.43407 2.39998 0.559277 0.0119467 -0.435356 -0.900179
-2.4087 2.55923 -0.573198 -0.0211136 -0.779641 0.625871
-2.4413 2.58255 -0.374489 -0.181107 -0.940882 0.286255
-2.42555 2.55489 -0.232286 0.0522227 -0.880521 0.471122
-2.35384 2.55507 0.0363273 0.0881233 -0.912407 0.399684
-2.35435 2.55534 0.16797 -0.199043 0.874021 0.443249
-2.38125 2.58921 0.403708 0.255345 0.885828 0.387437
-2.42449 2.59435 0.57938 -0.0971126 -0.633832 -0.76735
-2.44163 2.81215 0.0496503 -0.00945146 0.99843 0.0552182
-2.1772 -0.600854 -0.155185 0.69249 -0.669608 -0.268484
-2.1886 -0.572966 -0.00904118 0.773669 -0.598035 -0.20926
-2.19132 -0.585607 0.225447 0.714775 -0.563222 0.414581
-2.18844 -0.401488 -0.154306 0.740289 -0.435576 -0.512099
-2.23005 -0.380027 -0.0133718 0.822486 -0.54817 -0.151743
-2.19675 -0.447661 0.187902 0.658219 -0.646775 0.385267
-2.21992 -0.198824 -0.201956 0.730646 -0.241622 -0.638573
-2.24664 -0.172723 -0.000842916 0.694561 -0.693111 0.192826
-2.15462 -0.180401 0.179478 0.423765 -0.669731 0.609822
-2.17194 -0.0185392 -0.394114 -0.388358 0.352755 0.851318
-2.22807 -0.043148 -0.232523 -0.518716 0.388601 0.761527
-2.19077 0.00552909 0.157151 0.485297 -0.67944 0.550317
-2.21318 -0.0451408 0.385141 0.304282 -0.141737 0.941978
-2.21448 0.195887 -0.427654 -0.29889 0.118187 0.946941
-2.21799 0.234374 -0.217093 0.668075 -0.361884 -0.650166
-2.18718 0.186972 0.218085 0.356497 -0.263247 0.896443
-2.1514 0.161276 0.443213 0.300083 -0.181841 0.936421
-2.17703 0.352351 -0.391559 -0.273285 0.101083 0.956607
-2.21276 0.416943 -0.222416 -0.506728 0.187174 0.841542
-2.17775 0.418149 0.420197 0.292394 -0.129387 0.947504
-2.17664 0.609263 -0.433077 -0.322474 0.0899835 0.942292
-2.20829 0.574238 0.445517 0.298656 -0.126377 0.945956
-2.20892 0.831558 -0.381887 -0.167485 0.146664 0.974904
-2.22789 0.783725 0.436872 0.0991872 -0.026134 0.994726
-2.2117 1.02077 -0.439673 -0.232826 0.0943252 0.967933
-2.1576 1.02703 0.351341 0.308638 -0.0732137 0.948358
-2.16657 1.18844 -0.381779 0.262333 -0.0180532 -0.964809
-2.20411 1.15799 0.367242 0.182099 0.000500447 0.98328
-2.2022 1.40097 -0.353939 -0.514204 0.235263 0.82477
-2.16484 1.38591 0.432457 0.418452 0.0333048 0.907628
-2.16972 1.56841 -0.63579 -0.368605 0.233809 0.899702
-2.23735 1.63572 -0.207924 0.843463 -0.156916 -0.513757
-2.19484 1.61327 0.233861 0.728938 -0.0478522 0.682905
-2.16067 1.58995 0.390538 0.606907 0.0939889 0.789196
-2.16079 1.7505 -0.57655 -0.553449 0.265946 0.789283
-2.20267 1.84728 -0.433983 0.697297 -0.244667 -0.673732
-2.17419 1.83224 0.430409 0.442554 -0.375773 0.814212
-2.19787 1.79005 0.648549 0.324333 -0.272514 0.905839
-2.24846 1.97919 -0.647887 -0.189199 0.0540331 0.980451
-2.17289 1.95624 -0.434399 -0.611227 0.279734 0.740372
-2.20015 1.97707 0.400046 0.518994 -0.305586 0.798287
-2.15091 2.009 0.630147 0.324154 -0.230441 0.917508
-2.2182 2.19997 -0.608342 -0.353782 -0.112729 0.92851
-2.23151 2.16414 0.63732 0.0874551 0.0839478 0.992625
-2.15125 2.44022 -0.574465 0.446931 0.757838 -0.475326
-2.22246 2.42892 -0.373009 -0.434145 -0.826382 0.358623
-2.17279 2.36723 -0.220776 -0.433391 -0.88566 0.16667
-2.23217 2.43299 0.163236 -0.663031 -0.717027 -0.215089
-2.16006 2.40842 0.351244 -0.272644 -0.807191 -0.523554
-2.17237 2.42805 0.648118 -0.233837 -0.503099 -0.831992
-2.22927 2.5857 -0.187567 0.0466545 0.858876 -0.510054
-2.23068 2.61253 0.0270141 0.703212 -0.664999 0.251534
-2.17005 2.63243 0.159669 -0.0910362 -0.840267 -0.534475
-2.15371 2.84627 -0.179839 -0.524997 0.811109 -0.257838
-2.17833 2.81803 -0.00293728 0.711245 -0.697302 -0.0888836
-2.24833 2.83302 0.175063 0.54392 -0.646302 -0.535205
-2.00494 -0.231016 -0.240138 -0.348992 0.473993 0.808416
-2.04591 -0.157188 -0.0276663 0.500815 -0.846719 -0.179586
-1.96767 -0.248217 0.156693 -0.301823 0.679271 -0.668949
-1.96768 -0.0264837 -0.240371 -0.395351 0.192634 0.898103
-2.03339 -0.0270644 0.202949 -0.497994 0.531179 -0.685457
-1.96899 0.181271 -0.239187 -0.454855 0.187833 0.870532
-2.02534 0.243575 0.195358 0.38361 -0.140919 0.91268
-2.03847 0.3725 -0.43369 -0.386485 0.0568319 0.920543
-1.9874 0.402716 -0.216292 -0.56876 0.11359 0.814622
-2.01106 0.432883 0.175063 0.802098 0.025125 0.596664
-2.04329 0.410189 0.377703 0.371556 -0.214669 0.903251
-1.97756 0.627934 -0.439759 -0.336633 0.135975 0.931767
-1.98824 0.633072 -0.163651 0.862884 -0.456831 -0.216189
-1.968 0.635828 0.160295 0.772011 0.101415 0.627467
-2.01874 0.579543 0.396803 0.38735 -0.115002 0.914732
-1.96357 0.753963 -0.352569 -0.320063 0.148181 0.935736
-1.98549 0.801307 -0.193178 0.874032 -0.151666 -0.461591
-1.95584 0.842585 0.201377 0.753447 -0.330002 0.568696
-2.02642 0.848071 0.449104 0.340392 -0.0969241 0.935275
-2.01875 0.990743 -0.428507 -0.27102 0.0475959 0.961396
-2.02918 0.994711 0.382241 0.311998 -0.146668 0.938694
-2.03009 1.15194 -0.354211 -0.431232 -0.159442 0.888041
-2.02761 1.18365 0.443091 0.286207 0.00190611 0.958166
-2.0145 1.35446 -0.389921 -0.563979 -0.188083 0.804085
-2.00842 1.37385 -0.150854 0.759144 0.468247 -0.452156
-1.99753 1.35545 0.0112052 0.866849 0.476465 -0.146812
-1.99864 1.42857 0.15688 0.934763 0.244812 0.25746
-1.96957 1.42651 0.424506 -0.372911 -0.196344 -0.906855
-1.95435 1.64541 -0.385553 0.892614 -0.0745403 -0.444617
-1.97425 1.62845 -0.22743 0.908207 -0.038256 -0.41677
-2.01384 1.64744 0.0123767 0.999976 0.00514901 0.00466946
-2.01229 1.62309 0.220614 0.774631 0.12856 0.619208
-1.96054 1.60876 0.408279 0.596304 -0.0180106 0.802556
-2.00646 1.82329 -0.403082 0.702827 -0.29479 -0.647405
-2.03784 1.80634 -0.184114 0.831924 -0.412526 -0.371113
-2.04899 1.75839 -0.0498332 0.953058 -0.2995 -0.0444905
-1.97007 1.80925 0.247157 0.867775 -0.200321 0.454794
-2.03201 1.78637 0.398645 0.75212 -0.289915 0.591832
-2.02712 1.99268 -0.573781 -0.585919 0.183875 0.789233
-1.97293 1.98535 -0.173064 0.838922 -0.383895 -0.385791
-2.01619 1.95891 0.192217 0.870606 -0.324836 0.369497
-2.02408 2.02091 0.611242 0.476702 -0.226951 0.849263
-1.96064 2.23862 -0.620513 -0.50801 -0.111181 0.854146
-1.98896 2.16355 -0.369881 0.727025 0.0146896 -0.686453
-2.04004 2.22537 -0.204511 0.405094 0.371688 -0.835312
-1.99919 2.22295 -0.0431232 0.896384 0.44125 0.0423622
-1.95483 2.22531 0.196524 0.887059 0.356697 0.293075
-2.00565 2.2477 0.431846 0.718854 0.215847 0.660802
-2.04315 2.21746 0.564362 0.56059 0.0464112 0.826792
-2.02005 2.41118 -0.582374 -0.399352 -0.572228 0.716292
-1.97237 2.38972 -0.374677 0.495401 0.646458 -0.580232
-1.99223 2.40953 -0.0416799 0.715906 0.695652 0.059556
-2.01556 2.38882 0.449003 0.472693 0.56237 0.678456
-1.96504 2.35418 0.56951 0.49538 0.295343 0.816928
-2.02776 2.58637 -0.17539 -0.457422 0.304296 -0.835565
-1.96461 2.59518 0.215855 0.0302298 -0.345359 -0.937984
-1.97488 2.75137 -0.211604 0.283259 -0.160836 0.945461
-2.03636 2.7556 0.0426911 0.805582 -0.535084 -0.254405
-2.0332 2.78484 0.233166 0.266172 -0.479299 -0.836316
-1.96313 3.0051 -0.181513 -0.506084 0.680965 -0.529307
-2.03047 2.98181 0.00770213 -0.546236 0.836167 -0.0494981
-2.01914 3.01127 0.1558 -0.491529 0.788132 0.37047
-1.82646 -0.233006 -0.152034 -0.464059 0.537557 0.704047
-1.84063 -0.17645 -0.0013265 -0.0459376 -0.998604 -0.0260607
-1.83359 -0.23366 0.242569 -0.257497 0.473169 -0.8425
-1.84346 0.0145719 -0.234024 -0.361464 0.0984873 0.92717
-1.75827 0.0314811 0.0344087 0.945198 -0.124796 0.301706
-1.81795 -0.034579 0.247147 0.302992 -0.144219 0.942017
-1.77659 0.195762 -0.156288 0.861495 -0.100611 -0.497698
-1.84385 0.182392 0.0195878 0.950735 -0.289249 -0.111529
-1.82293 0.179886 0.228572 0.50694 -0.1567 0.847619
-1.84424 0.411758 -0.214824 -0.443755 0.128879 0.886832
-1.75225 0.403335 0.219224 0.625563 -0.151203 0.765381
-1.83967 0.620842 -0.155346 0.462992 -0.6622 -0.589177
-1.84473 0.583608 0.200029 0.626174 -0.00199611 0.779681
-1.80914 0.777625 -0.239786 -0.663207 0.199214 0.721436
-1.8 0.781538 0.186439 0.709211 -0.22297 0.668808
-1.78007 0.953167 -0.380868 -0.481062 0.139758 0.865475
-1.81916 0.972973 -0.197234 0.741727 -0.0530589 -0.6686
-1.77492 1.03639 0.174252 0.899805 0.0663621 0.431216
-1.82245 1.03863 0.414527 0.57045 -0.0370554 0.820496
-1.81313 1.16827 -0.376467 -0.430081 -0.128058 0.893662
-1.8177 1.1553 -0.207709 0.656427 0.430526 -0.619476
-1.84232 1.21186 0.0415389 0.90853 0.415117 0.0474504
-1.79968 1.19705 0.184835 0.833781 0.333633 0.439885
-1.78032 1.15774 0.430606 0.547816 0.0452035 0.835377
-1.84979 1.42424 -0.377039 0.806021 0.0742216 -0.587214
-1.82785 1.38457 -0.190289 0.837601 0.495379 -0.23027
-1.84121 1.44965 0.00223834 0.902076 0.416577 -0.112796
-1.84654 1.40775 0.152963 0.852071 0.501746 0.149085
-1.80825 1.3908 0.366801 0.736603 0.257581 0.625354
-1.80559 1.81024 -0.159536 0.974537 -0.224198 0.00354248
-1.75122 1.83506 -0.0224386 0.940409 -0.337027 0.045207
-1.77902 1.75562 0.170849 0.97146 -0.167052 0.168402
-1.76541 1.98869 -0.375768 0.791344 -0.227599 -0.567427
-1.75572 2.02557 -0.17541 0.906568 -0.2792 -0.316516
-1.75788 1.99243 -0.0487617 0.987118 -0.108038 0.118008
-1.80177 2.014 0.175119 0.933067 -0.244295 0.26402
-1.82805 1.99972 0.373192 0.824221 -0.161661 0.542703
-1.7972 2.20473 -0.391262 0.857495 -0.175501 -0.483633
-1.75154 2.2269 -0.234692 0.910408 -0.173036 -0.375786
-1.7752 2.21636 -0.0461187 0.974065 -0.189103 -0.124246
-1.79355 2.23671 0.21462 0.927958 -0.171734 0.330759
-1.84628 2.18552 0.411053 0.796868 -0.160904 0.582333
-1.75213 2.43638 -0.238876 0.269599 -0.0168092 -0.962826
-1.81695 2.41451 -0.0152395 0.729179 -0.675945 0.106752
-1.82702 2.40383 0.217493 0.716729 -0.41139 0.563078
-1.76621 2.62712 -0.245105 -0.146305 0.0288286 0.988819
-1.81048 2.637 0.239966 0.197096 0.103859 0.974867
-1.76153 2.83283 -0.19822 0.200172 -0.231674 0.951976
-1.77476 2.82096 0.193403 0.0459382 0.28037 0.958792
-1.81482 2.95722 -0.226448 0.33318 -0.520259 0.786335
-1.80284 2.9717 0.0445491 -0.479343 0.871237 0.105717
-1.81997 2.98791 0.166199 0.270591 -0.684784 -0.676647
-1.63672 -0.229176 -0.152553 0.72252 -0.473334 -0.503905
-1.59892 -0.248637 0.0128626 0.789074 -0.445733 -0.42271
-1.56474 -0.225092 0.233968 -0.688682 0.413999 -0.595249
-1.58873 0.195084 -0.173348 0.899866 -0.25673 -0.352606
-1.64775 0.215662 -0.010787 0.894972 -0.444338 0.0398546
-1.62478 0.193837 0.178464 -0.662147 0.0334661 -0.748627
-1.56346 0.364946 -0.220363 0.837043 -0.190515 -0.512897
-1.62022 0.402435 0.0241911 0.961333 -0.227984 0.154476
-1.64338 0.355301 0.189933 0.724259 -0.0810655 0.684746
-1.55659 0.574763 -0.182224 0.717845 -0.0703888 -0.692636
-1.56088 0.615282 -0.0411314 0.99959 -0.0152689 0.0242411
-1.59997 0.592151 0.206518 -0.627976 0.000700237 -0.778232
-1.61764 0.848654 -0.238357 0.722566 -0.221445 -0.654874
-1.55873 0.799677 -0.00729989 0.992913 -0.0168057 0.117647
-1.63016 0.814081 0.179146 0.839508 -0.154131 0.521028
-1.5549 0.964034 -0.222805 0.870251 0.124761 -0.476548
-1.61444 0.996881 0.0386858 0.969412 0.157153 0.18853
-1.63344 0.97972 0.219397 0.856539 0.0553975 0.513101
-1.60102 1.1822 -0.157822 0.87675 0.453721 -0.159522
-1.58789 1.18928 0.029249 0.891045 0.453548 -0.0182534
-1.61294 1.24726 0.167004 0.853002 0.499762 0.150421
-1.63232 2.36102 -0.231943 0.841102 -0.283528 -0.460607
-1.614 2.38726 0.036331 0.644602 -0.760192 0.0812129
-1.64165 2.42906 0.175762 0.776116 -0.53938 0.32667
-1.60791 2.56235 -0.236839 0.221223 -0.0556231 -0.973636
-1.6015 2.60541 0.0244613 0.500155 -0.848971 0.170566
-1.64026 2.57336 0.235708 0.225906 -0.0914074 0.969851
-1.56954 2.76626 -0.157478 -0.18459 0.267334 0.945759
-1.58152 2.80073 0.165877 -0.0363001 -0.0839343 0.99581
-1.63351 2.9941 -0.215802 0.177546 -0.456661 0.871745
-1.55143 3.00741 0.176034 0.33501 -0.404745 -0.850853
-1.55192 3.16545 -0.22194 -0.355494 0.867544 -0.347839
-1.64003 3.17202 0.0281048 -0.32499 0.941377 0.090504
-1.57196 3.2113 0.221862 -0.354945 0.837949 0.414555
-1.43173 2.6179 -0.166069 0.326257 -0.332681 -0.884805
-1.42619 2.59236 0.0265649 0.556747 -0.828377 0.0618371
-1.41094 2.61453 0.173571 0.30487 -0.484062 0.820206
-1.38754 2.84626 -0.240116 -0.0222096 0.142273 0.989578
-1.38451 2.81643 0.241977 -0.104754 -0.140442 0.984532
-1.40001 3.02445 -0.159146 0.0651918 -0.552924 0.830678
-1.36121 3.01608 0.189695 -0.2857 0.103245 0.952741
-1.42455 3.18353 -0.182116 0.35371 -0.647626 0.674885
-1.38605 3.15358 0.00301702 0.770164 -0.61726 -0.160742
-1.37867 3.15164 0.195368 0.428703 -0.445105 -0.78619
-1.22188 2.55865 -0.21979 -0.470496 0.833793 0.28883
-1.23366 2.5831 0.0101487 -0.457047 0.87811 0.141529
-1.19118 2.57482 0.224734 -0.209542 0.626735 -0.75053
-1.18696 2.79488 -0.237539 -0.148907 0.262565 0.953355
-1.22194 2.7823 0.000449987 0.770993 -0.610229 -0.182182
-1.1866 2.84009 0.164882 0.504542 0.131374 0.853333
-1.22987 2.97503 -0.196204 -0.290147 0.116494 0.949865
-1.15335 2.95774 0.203521 0.0546473 0.0453051 0.997477
-1.2252 3.15359 -0.191973 0.408332 -0.207646 0.888903
-1.24305 3.18326 0.0332198 0.885722 -0.441251 -0.144203
-1.24401 3.24751 0.249551 -0.2671 0.479023 0.836178
-1.17074 3.3926 -0.194171 -0.387426 0.849936 -0.357084
-1.19298 3.43674 -0.0222575 0.468951 -0.844277 0.259389
-1.17313 3.37063 0.202878 -0.332064 0.854032 0.400454
-1.02696 2.84578 -0.194068 0.138118 -0.604542 -0.784508
-1.00976 2.78562 0.00696403 0.425951 -0.900091 -0.0916637
-0.960664 2.75617 0.23117 -0.234687 0.386431 -0.89196
-1.03001 3.03517 -0.182731 0.140634 0.198057 0.970049
-1.03617 2.95616 0.213853 -0.203632 0.104021 -0.973506
-0.950544 3.21812 -0.205224 0.188629 -0.202942 0.960851
-1.02626 3.24327 0.182872 0.0213896 -0.0780384 -0.996721
-0.957727 3.41004 -0.241209 0.293651 -0.385768 0.874615
-1.00761 3.36883 -0.0359895 -0.463275 0.705208 -0.536711
-1.0323 3.38889 0.217656 -0.375174 0.684447 0.625121
-0.82494 2.82489 -0.249873 0.334456 -0.585674 -0.738326
-0.79463 2.77313 -0.0162868 -0.230135 0.970897 0.0663139
-0.762421 2.75553 0.211011 -0.346761 0.833012 -0.4311
-0.780862 3.04322 -0.210821 -0.074119 0.286725 0.955142
-0.844351 2.96744 -0.0362259 -0.319847 0.913517 0.251365
-0.768639 2.98603 0.187477 -0.278123 0.502567 -0.818581
-0.804536 3.23888 -0.219669 -0.0365333 -0.0913787 0.995146
-0.817943 3.17709 0.247641 0.0611751 0.059891 0.996329
-0.788351 3.42056 -0.188099 0.128967 -0.415909 0.900215
-0.848833 3.43235 0.00192305 0.272173 -0.94445 -0.184217
-0.804408 3.44322 0.233326 -0.163336 0.451659 0.877112
-0.791493 3.60785 -0.00720053 -0.381957 0.920419 -0.0832966
-0.643527 3.04032 -0.216661 0.112367 -0.43808 -0.891886
-0.578412 2.95608 -0.00580111 0.214698 -0.976399 0.0234455
-0.575437 3.04684 0.157766 -0.274493 0.673822 -0.686016
-0.571431 3.16081 -0.181976 0.0218246 -0.544293 -0.838611
-0.605922 3.18503 0.210302 0.110895 0.438054 -0.892083
-0.577534 3.36471 -0.178327 -0.014493 -0.293662 0.955799
-0.595004 3.39363 0.170781 -0.489286 0.283296 0.824829
-0.648981 3.63034 -0.164956 -0.29035 0.866139 -0.406816
-0.606384 3.61593 -0.0264821 -0.278277 0.954771 -0.104756
-0.647555 3.59815 0.230516 -0.217633 0.773253 0.59558
-0.443591 2.95241 -0.15609 -0.286604 0.912351 0.292359
-0.353225 2.96853 0.0408654 -0.0125089 0.999858 0.0112657
-0.447941 2.98911 0.221663 -0.253832 0.493886 -0.831653
-0.381368 3.15095 -0.188334 -0.0790673 0.749302 0.657491
-0.441667 3.21845 0.185354 0.0924857 -0.428414 0.898837
-0.351739 3.43859 -0.18744 -0.156284 0.709225 -0.687441
-0.409199 3.42182 0.241841 -0.048915 0.208653 0.976766
-0.397378 3.6429 -0.1867 -0.0471584 0.972848 -0.226588
-0.423714 3.62907 0.00415363 -0.118535 0.987939 0.099632
-0.372662 3.59327 0.223517 0.00194334 -0.71242 -0.701751
-0.239056 2.99779 -0.151344 0.211958 -0.833962 -0.509492
-0.246825 3.01163 0.00571639 0.129467 -0.929707 -0.344794
-0.187771 3.00796 0.169765 -0.0853396 0.780025 -0.619902
-0.242144 3.23194 -0.23694 -0.0878256 0.159428 0.983295
-0.187542 3.16086 0.162025 -0.073481 0.689342 -0.720699
-0.212053 3.3873 -0.203221 0.0436492 -0.175528 0.983506
-0.216573 3.41791 0.191187 -0.0666823 -0.270756 -0.960336
-0.203737 3.57767 -0.200475 0.038545 0.703831 -0.709321
-0.23366 3.59814 -0.00923172 0.00278652 0.968581 -0.248683
-0.243333 3.61781 0.158255 -0.0495137 0.855272 0.515809
-0.00870638 3.04534 -0.209071 -0.227915 0.779031 0.584093
-0.014319 2.9682 0.0452322 -0.327948 0.938409 0.108801
0.025155 2.99312 0.238317 -0.160178 0.611608 -0.774777
0.0206878 3.20723 -0.226692 -0.125292 0.386097 0.91391
-0.000630352 3.20861 0.0216578 0.371719 -0.839325 -0.396684
0.012508 3.16046 0.183393 -0.363268 0.843858 -0.394891
0.0430283 3.4285 -0.206409 0.0317577 -0.0942319 0.995044
-0.0294576 3.39689 0.181695 0.361043 0.193347 0.912286
0.0152462 3.64145 -0.161439 -0.122647 0.727344 -0.675225
0.0105014 3.60549 -0.0145501 -0.177324 -0.161434 -0.970822
-0.047245 3.64999 0.17451 -0.167948 0.961056 0.219467
0.206522 3.04732 0.0498794 -0.169706 0.983161 0.0677764
0.201241 3.19811 -0.182577 0.149811 -0.710257 -0.687816
0.168108 3.20604 0.00925514 0.436742 -0.892165 -0.115314
0.152767 3.22475 0.214055 -0.381165 0.166543 -0.909383
0.158437 3.35758 -0.177436 0.000632128 -0.306797 -0.951775
0.233297 3.39809 0.164792 -0.0396887 -0.0386962 0.998463
0.168944 3.56802 -0.223667 0.0580152 0.267723 -0.961748
0.212741 3.61128 -0.0273636 -0.399006 0.902498 -0.162145
0.247309 3.60361 0.166396 -0.245819 0.561487 0.79013
0.188375 3.81961 -0.0312546 -0.365711 0.920305 -0.138904
0.384118 3.20714 -0.166925 0.0890233 0.801171 0.591777
0.41165 3.24055 0.00709535 -0.306845 0.569266 -0.762746
0.442792 3.2041 0.165801 -0.146554 0.696019 -0.702908
0.387976 3.40071 -0.180511 0.0833914 0.0724932 0.993877
0.415579 3.42281 0.16422 -0.00472954 -0.187856 0.982185
0.367963 3.58574 -0.237092 -0.125658 0.430778 -0.893667
0.431184 3.63277 0.0127609 0.902771 -0.0921041 0.420144
0.406581 3.63879 0.166239 0.891942 -0.145851 -0.42798
0.434336 3.7647 -0.151583 0.224999 -0.819576 0.526944
0.426735 3.81196 -0.0434702 -0.419311 0.899045 -0.126081
0.358536 3.79286 0.165136 -0.246582 0.906315 0.343205
0.595215 3.20575 -0.168583 -0.0493254 0.792768 0.607524
0.579908 3.17852 -0.0151583 -0.0412434 0.995971 -0.0796257
0.612404 3.16082 0.169647 -0.0098622 0.854556 -0.519266
0.603642 3.40486 -0.18497 -0.263053 -0.229503 -0.937087
0.611851 3.40848 0.158535 0.272304 0.411072 -0.869983
0.57277 3.64636 -0.188318 -0.245363 0.612249 -0.751631
0.572142 3.62935 0.00549637 0.792611 -0.570561 -0.215009
0.577875 3.60139 0.189019 0.161314 -0.441128 -0.882827
0.598417 3.8117 -0.186517 0.222759 -0.797789 0.560277
0.583765 3.8424 0.0218028 -0.00917487 0.997042 -0.0763029
0.57682 3.82673 0.204846 0.156027 -0.661932 -0.733144
0.75042 3.17266 -0.224732 0.0243982 0.936711 0.349253
0.825677 3.16711 -0.0233872 -0.00381887 0.999506 0.0312047
0.801993 3.2023 0.224155 0.0455291 0.58966 -0.806367
0.769114 3.36834 -0.247491 -0.0728424 -0.240541 -0.967902
0.834869 3.39826 0.162147 -0.363964 -0.089965 0.927058
0.758447 3.55776 -0.21538 0.0455059 -0.272687 0.961026
0.847645 3.57174 0.181908 -0.0873017 0.349205 0.932971
0.814235 3.75274 -0.237592 0.0191633 0.598545 -0.80086
0.824179 3.84339 0.0305996 0.00900597 0.998968 -0.0445115
0.817946 3.79149 0.162369 -0.12025 0.721046 0.682373
1.04622 3.22114 -0.24191 0.106482 -0.668915 -0.735673
1.00372 3.21654 -0.0239174 0.0146788 0.974235 -0.225057
1.0332 3.18695 0.224172 -0.0351317 0.743209 -0.668137
1.03621 3.3642 -0.21193 -0.0177638 -0.306121 -0.951827
0.995946 3.38179 0.222887 -0.223106 0.415152 -0.881971
1.03634 3.63335 -0.227289 0.144383 -0.494328 0.857201
0.992379 3.64577 0.183724 0.164829 0.454752 0.875233
0.96181 3.79215 -0.164612 0.133137 0.864935 -0.483903
1.04553 3.84648 0.0127976 0.0942679 0.958797 0.267994
0.967961 3.75521 0.173737 0.0128812 -0.654936 -0.755575
1.20734 3.23875 -0.158516 0.136679 0.784578 0.604778
1.17155 3.22116 -0.0462165 -0.103688 0.994327 -0.0237282
1.15696 3.24041 0.20427 0.0107639 -0.773994 0.633101
1.15517 3.44354 -0.193676 -0.120291 -0.0437747 0.991773
1.16241 3.42319 0.163566 -0.182123 0.145729 -0.972417
1.19301 3.58266 -0.175792 0.291806 0.30723 -0.905792
1.20178 3.56053 0.211786 -0.0608161 -0.0505827 -0.996866
1.23975 3.77295 -0.193028 -0.000528121 0.762002 -0.647574
1.17835 3.77174 0.0378374 0.100239 0.994962 0.00148927
1.21332 3.75383 0.183111 0.0423908 0.800008 0.59849
1.40944 3.17227 -0.174971 -0.0338521 0.860238 0.508768
1.41232 3.18039 -0.0119064 0.0682414 0.997557 -0.0149454
1.415 3.17693 0.249872 0.0359955 0.827536 -0.560257
1.44506 3.37858 -0.171469 -0.0522003 0.255992 0.965268
1.40241 3.43386 0.163728 0.018329 -0.0405961 0.999008
1.42372 3.58893 -0.189377 -0.0293468 -0.348088 0.937002
1.38283 3.6097 0.213936 0.0249584 0.399263 0.916497
1.44249 3.76952 -0.167583 0.0683712 -0.835251 0.545602
1.39711 3.77738 0.0175096 0.122406 0.980922 0.151029
1.40243 3.84612 0.169623 0.022949 0.886442 0.46227
1.63663 3.2059 -0.157598 0.014328 0.692109 0.721651
1.6319 3.19837 0.0371386 0.406642 0.890814 0.202712
1.64123 3.16164 0.224053 -0.371014 -0.612446 0.698039
1.57071 3.41265 -0.245602 -0.110138 0.152037 0.982219
1.62424 3.43942 0.183285 0.237274 0.0682018 -0.969046
1.63964 3.55515 -0.17671 0.418955 -0.100809 0.902394
1.61114 3.62689 0.163282 -0.0500223 -0.290523 -0.95556
1.58052 3.77027 -0.241272 -0.207373 0.600293 -0.772428
1.63645 3.77065 -0.0256049 0.314835 -0.935311 0.16147
1.57932 3.82744 0.186374 -0.0321765 0.941333 0.335941
1.78739 3.17837 -0.160072 -0.308204 -0.783524 -0.539537
1.8499 3.24166 0.0309457 0.536485 0.813905 0.22303
1.76964 3.23545 0.15556 -0.400344 -0.706871 0.583144
1.78834 3.38416 -0.214878 0.461335 0.453712 0.76244
1.78909 3.35313 0.154412 0.643637 0.608003 -0.464827
1.75968 3.57562 -0.155279 0.0235121 0.778605 0.627074
1.7605 3.5515 0.203871 -0.457407 0.148621 0.87675
1.84361 3.78389 -0.169254 -0.27793 0.823476 -0.494613
1.8157 3.84715 -0.0345127 0.0658318 -0.997596 0.021648
1.82101 3.79874 0.217077 -0.19545 0.803128 0.562836
2.03112 3.02643 -0.219331 -0.348166 -0.829663 -0.436394
1.98793 3.04857 0.0164923 0.287363 0.911633 -0.293849
1.96969 2.98231 0.207705 -0.301722 -0.892468 0.335358
