ply
format ascii 1.0
comment Created by Open3D
element vertex 865
property double x
property double y
property double z
property double nx
property double ny
property double nz
end_header
-3.36193 -1.15348 -0.462532 -0.355397 0.0336073 0.934111
-3.37976 -1.16336 -0.534984 -0.406948 0.209375 0.889132
-3.32539 -1.20448 -0.226957 0.847298 -0.394432 -0.355682
-3.26547 -1.32554 0.0886861 0.87429 -0.483936 -0.0377103
-3.26727 -1.27394 0.383489 0.868421 -0.000139685 0.495828
-3.54914 -1.29201 0.599729 0.304768 0.0834347 0.948765
-3.5291 -1.13714 -0.494535 0.29937 -0.224983 -0.927233
-3.49324 -0.923966 -0.500466 -0.366872 0.338992 0.866308
-3.39858 -0.873212 0.360486 0.521388 -0.206455 0.827968
-3.4153 -0.925035 0.454052 0.54043 -0.0807717 0.837503
-3.47947 -0.663305 -0.741687 -0.140049 0.233031 0.962332
-3.30537 -0.72819 -0.497301 -0.570534 0.474169 0.670563
-3.39391 -0.801945 0.314127 -0.501545 0.657701 -0.562034
-3.50801 -0.932303 0.615952 -0.445864 0.0882249 -0.890742
-3.44438 -0.575558 -0.502396 0.463495 -0.0274517 -0.885674
-3.27521 -0.712946 0.422962 -0.606044 0.257138 -0.752722
-3.26997 -0.597686 0.624372 -0.564091 0.221718 -0.795388
-3.46075 -0.39622 -0.594511 -0.0607368 -0.106677 0.992437
-3.48878 -0.44743 0.652188 -0.060014 0.0306899 -0.997726
-3.53098 -0.242217 -0.63377 0.0321883 -0.139596 0.989685
-3.51993 -0.275835 0.588924 -0.206616 0.258968 0.943528
-3.35313 0.113237 -0.513867 -0.0241406 -0.024907 0.999398
-3.48819 -0.0692432 0.476777 -0.0870833 0.425371 0.90082
-3.52373 0.30396 -0.476534 -0.204259 0.473622 -0.856715
-3.38574 0.0686986 0.599226 -0.0649787 0.0922665 0.993612
-3.35104 0.498138 -0.514487 0.284612 0.000672356 0.958643
-3.48637 0.326442 0.659406 -0.401698 -0.132832 0.906088
-3.45953 0.708103 -0.640579 0.0723981 0.360289 -0.930027
-3.50589 0.549806 -0.461142 0.722921 -0.251209 0.643645
-3.54364 0.504288 0.495285 0.854279 -0.227717 -0.467282
-3.36339 0.681598 0.739603 -0.241253 0.122703 -0.962674
-3.35001 0.791318 -0.733117 0.036575 -0.237426 -0.970717
-3.28065 0.939107 -0.389626 -0.31489 0.769866 -0.555114
-3.35586 0.763284 0.512472 0.35883 -0.0223907 -0.933134
-3.4606 0.832649 0.658903 -0.148521 0.447545 0.881842
-3.49664 0.979719 -0.696512 0.641957 -0.333274 0.690521
-3.46715 0.898096 -0.330188 0.967239 -0.0973886 0.234445
-3.53353 0.944184 0.349642 0.775221 -0.348805 -0.526656
-3.42933 1.00988 0.703493 -0.457028 0.315844 0.831485
-3.5044 1.05745 -0.389687 0.855186 -0.518315 0.00247369
-3.41685 1.21724 -0.12152 0.843595 -0.331755 0.42224
-3.49881 1.10923 -0.0981279 0.845298 -0.465983 0.2614
-3.41826 1.23887 0.304175 0.871991 -0.385049 -0.302273
-3.52155 1.09089 0.458295 0.688794 -0.444977 -0.572327
-3.32361 1.48344 -0.305038 -0.291898 -0.266247 -0.918645
-3.31222 1.32763 -0.20509 0.667732 -0.377882 0.641358
-3.34328 1.28989 0.00545382 0.886442 -0.417304 0.200196
-3.41007 1.45485 0.190393 0.963346 -0.235432 -0.128596
-3.27444 1.46735 0.463828 0.712567 -0.333995 -0.617005
-3.46431 1.60503 -0.16172 0.873729 -0.445065 0.196253
-3.25615 1.60579 -0.104793 0.832402 -0.443147 0.332758
-3.4001 1.52123 0.208848 0.861944 -0.466725 -0.198039
-3.21044 -1.64456 -0.109384 0.930196 -0.0564244 -0.362699
-3.1616 -1.60639 0.0574561 0.770243 -0.329905 0.545792
-3.33858 -1.73444 0.272133 0.884115 -0.287116 0.368653
-3.21419 -1.47122 -0.155943 0.973944 -0.0946266 -0.206104
-3.09282 -1.35929 0.130804 0.90868 -0.318406 0.270033
-3.23596 -1.34296 0.259324 0.910191 -0.324613 0.257253
-3.09894 -1.14915 -0.437896 0.863745 -0.157762 -0.478597
-3.18074 -1.24743 -0.33768 0.830053 -0.381449 -0.406827
-3.20434 -1.15493 0.053415 0.947001 -0.299963 -0.114939
-3.28314 -1.30169 0.105006 0.853448 -0.520073 -0.0339219
-3.34231 -1.33278 0.469265 0.732208 -0.0160077 0.680893
-3.16589 -0.903887 -0.328902 0.750022 -0.359407 -0.555242
-3.21766 -0.860045 -0.14605 0.724135 -0.437485 -0.533138
-3.11148 -1.04657 -0.0982453 0.929611 -0.310123 -0.199115
-3.15629 -0.911681 0.300728 0.535312 -0.192085 0.822523
-3.10789 -1.14929 0.272457 0.834508 -0.217397 0.506296
-3.19738 -0.861902 -0.332029 0.791418 -0.189851 -0.581045
-3.33622 -0.85837 -0.196647 0.842267 -0.234779 -0.485247
-3.25115 -0.797546 0.190399 0.772636 -0.46449 0.432761
-3.09859 -0.66277 0.382418 0.614679 -0.344006 0.70981
-3.19739 -0.715196 -0.653896 -0.485858 0.280952 0.827652
-3.12522 -0.590943 -0.361281 -0.376931 0.584125 0.718833
-3.32708 -0.558447 -0.169537 0.918824 0.0379636 -0.392837
-3.09073 -0.532294 0.132544 0.938294 -0.324607 0.119306
-3.26227 -0.684697 0.642659 -0.659963 0.316449 -0.681402
-3.15111 -0.251786 -0.550436 -0.324879 0.0806347 0.942312
-3.25438 -0.467612 -0.527062 -0.640182 -0.0187291 0.767995
-3.11777 -0.323714 0.388243 0.53861 -0.309898 0.783494
-3.3482 -0.292901 0.675327 0.392152 0.246244 0.88633
-3.07771 -0.0555151 -0.627697 0.350508 -0.269881 -0.896833
-3.12729 -0.158991 -0.276676 -0.659732 0.0744591 0.747803
-3.20492 -0.240461 0.543019 -0.340543 -0.104262 -0.93443
-3.22456 -0.125902 0.488066 -0.26817 0.145726 -0.952286
-3.12149 0.0900899 -0.597121 -0.283449 0.185312 0.940913
-3.18005 0.0924939 0.466015 -0.0474043 -0.203882 0.977847
-3.10621 0.304816 -0.46011 -0.123794 0.0262176 0.991962
-3.13165 0.244445 0.677808 0.164484 -0.00353622 0.986373
-3.08537 0.25187 -0.590953 -0.34347 0.00536108 0.939148
-3.28329 0.505468 0.524092 0.159157 -0.136886 0.977717
-3.30893 0.657005 -0.735814 0.0427854 -0.246672 -0.968154
-3.15026 0.736338 0.748045 -0.23643 0.0907491 -0.967401
-3.20564 0.65834 -0.457218 0.224775 -0.226992 0.947603
-3.115 0.813324 0.55625 0.230588 -0.115797 0.966137
-3.08891 0.984881 -0.500487 -0.135364 0.120743 -0.983411
-3.31905 0.976962 -0.287247 0.428877 -0.273304 0.861028
-3.07991 0.862454 0.494279 0.0679665 -0.0704571 0.995197
-3.24692 0.902251 0.512496 -0.138006 0.275091 0.951462
-3.10446 1.12257 -0.740532 0.102274 -0.0398175 -0.993959
-3.06266 1.25085 -0.251146 0.656466 -0.267005 0.705522
-3.29594 1.33265 0.548866 -0.607861 0.428195 0.668696
-3.17096 1.27321 0.533257 0.457848 -0.142356 -0.877559
-3.23974 1.31051 -0.6947 0.269455 -0.0983457 -0.957978
-3.23652 1.34646 -0.277838 0.802701 -0.436127 0.406774
-3.32494 1.51972 0.257326 0.831835 -0.472632 -0.290981
-3.34059 1.3192 0.468545 0.658257 -0.462406 -0.594036
-3.20287 1.67291 -0.438093 0.812095 -0.446487 0.375701
-3.08456 1.65361 -0.328783 0.953455 -0.237675 0.185562
-3.0643 1.73314 -0.0170121 0.989315 -0.12557 0.0740842
-3.27888 1.63851 0.134689 0.771819 -0.614815 -0.162166
-3.0531 1.67129 0.284185 0.715119 -0.579865 -0.390334
-3.108 1.85743 -0.530564 0.879365 -0.281995 0.383662
-3.14353 1.86172 -0.0689294 0.975937 -0.20976 0.05956
-3.08978 1.89249 -0.0629717 0.962468 -0.252957 0.0983315
-3.16124 1.77499 0.0608853 0.686682 -0.726649 -0.0211956
-3.3002 1.7329 0.436132 0.756299 -0.542291 -0.365967
-3.06281 2.09528 -0.221383 0.960495 -0.186857 0.206238
-3.07003 1.92128 -0.0751574 0.932473 -0.340106 0.121746
-3.13007 2.03597 0.131001 0.993829 -0.110817 0.00492949
-3.02991 -0.909458 -0.112725 0.663203 -0.702956 -0.256933
-2.99253 -0.936986 0.00295378 0.544598 -0.807728 -0.225806
-3.01254 -0.989785 0.181004 0.952222 -0.30523 0.0103989
-2.85155 -0.709088 -0.163053 0.407732 -0.84589 -0.343837
-2.97655 -0.787869 -0.0991308 0.581328 -0.771023 -0.259965
-2.9346 -0.903425 0.165204 0.810288 -0.506577 0.29464
-2.96322 -0.512249 -0.38882 -0.398161 0.294312 0.86882
-3.01165 -0.709093 -0.13572 0.835442 -0.49193 -0.245033
-3.01673 -0.461848 0.130971 -0.532056 0.626979 -0.569047
-2.94778 -0.541656 0.162977 0.245934 -0.742868 0.622627
-3.01434 -0.744172 0.300959 -0.348126 0.385983 -0.854298
-2.88032 -0.545003 -0.330617 -0.0347094 -0.419422 -0.907127
-2.90145 -0.316082 0.303444 0.140782 -0.423712 0.89479
-2.90841 -0.159601 -0.319047 -0.118192 0.0837665 0.989451
-3.0025 -0.219811 0.436398 -0.150831 0.32407 -0.933932
-2.95234 -0.148029 -0.598841 0.228623 -0.128285 -0.965026
-3.14154 0.00252099 -0.410369 -0.208199 0.214399 0.954299
-2.92909 0.132851 0.463029 -0.585486 0.0111188 -0.810606
-2.90863 0.0927088 0.722047 -0.0221161 0.382012 -0.923893
-3.07347 0.294498 -0.654092 -0.368276 0.0585425 0.927872
-3.09538 0.0797278 -0.484713 -0.407274 0.229802 0.883923
-3.04422 0.210059 0.547568 -0.459482 0.0557993 -0.886433
-3.11253 0.0743693 0.57322 0.0715434 -0.26483 0.961637
-3.04529 0.548794 -0.591603 -0.309145 0.259187 0.915015
-2.86282 0.317729 -0.436814 -0.320285 0.21082 0.923565
-2.97167 0.448972 0.269963 -0.52656 -0.272947 -0.80513
-2.97256 0.502324 0.454993 0.719303 0.0490622 0.692962
-2.92263 0.698814 -0.641914 -0.325572 0.272806 0.905306
-3.00746 0.714098 0.59783 0.208111 -0.0723436 0.975426
-3.04185 0.75263 -0.733214 -0.196119 0.166051 0.966418
-3.00257 0.896355 0.602055 0.0234348 0.113181 -0.993298
-3.01099 0.897048 -0.645764 0.0871404 0.0209473 -0.995976
-3.08842 0.880657 0.486617 -0.0463614 -0.200209 0.978656
-3.14651 1.29923 -0.681873 -0.566296 -0.0158192 -0.82405
-3.06297 1.06138 0.749116 -0.0353438 -0.0827037 0.995947
-2.85409 1.34712 -0.604581 0.00556956 0.501323 -0.865242
-3.04292 1.46636 -0.304748 -0.646834 0.297251 -0.702315
-3.07658 1.43686 0.516917 -0.521096 0.411089 0.747974
-3.08164 1.2578 0.675439 0.366512 0.0334996 -0.92981
-3.04496 1.70048 -0.676023 -0.25159 0.176514 -0.951602
-2.96318 1.56143 -0.289186 0.770235 -0.143639 0.621374
-3.00761 1.72927 0.454172 -0.452235 0.533868 0.714471
-3.11721 1.73707 0.626809 -0.453773 0.231062 0.860639
-3.10641 1.70114 -0.671429 -0.611687 0.559934 -0.55885
-2.94013 1.80233 -0.331243 0.626552 -0.598709 0.498978
-3.09143 1.84283 0.212663 0.959274 -0.282032 -0.0158573
-2.96558 1.71059 0.580632 -0.575648 0.419246 0.702042
-3.09499 1.95003 -0.358872 0.927904 -0.34213 0.148126
-3.08087 1.87939 -0.136835 0.973349 -0.207511 0.0976294
-2.86165 1.90527 -0.0548542 0.698311 -0.656962 0.284188
-3.02472 1.91256 0.228418 0.935962 -0.328656 -0.126332
-3.10557 1.97005 0.470075 0.695981 -0.276355 -0.662751
-3.06 2.17306 -0.326442 0.807182 -0.167055 0.566172
-2.97384 2.30897 -0.115404 0.883758 -0.448488 0.133531
-2.8876 2.20329 0.031399 0.932131 -0.354572 0.0735606
-3.07475 2.23348 0.337853 0.896205 -0.433694 0.0934103
-3.10161 2.18459 0.305885 0.901966 -0.287851 0.321868
-2.99216 2.31655 -0.276806 0.679431 -0.682057 0.270503
-3.10784 2.33289 -0.12777 0.934587 -0.353993 -0.0351612
-2.9522 2.40108 0.102744 0.891857 -0.452172 0.0114359
-2.84662 -0.642119 -0.330346 -0.390216 0.7268 0.565238
-2.68116 -0.683073 -0.327887 0.164483 -0.875158 -0.455021
-2.75389 -0.722561 -0.125681 0.448234 -0.855277 -0.259977
-2.87929 -0.65253 0.307561 0.235921 -0.228071 0.944629
-2.85632 -0.589064 0.407467 -0.081942 -0.298791 0.950794
-2.75585 -0.333348 -0.530369 -0.138389 0.294953 0.945437
-2.72718 -0.36276 0.331365 0.0216525 -0.387083 0.92179
-2.78219 -0.207021 -0.327946 -0.211923 0.182605 0.960075
-2.8723 -0.173551 0.487547 0.172172 -0.416747 0.892569
-2.92631 0.0359131 -0.314949 -0.298969 0.049611 0.952972
-2.85826 0.0206697 0.451871 0.383938 -0.162879 0.90888
-2.70325 0.316044 -0.277528 -0.0815417 -0.136792 -0.987238
-2.87833 0.336533 0.539929 -0.314649 0.102145 -0.943696
-2.94356 0.547344 -0.555512 -0.260214 0.2863 0.922129
-2.83302 0.440329 -0.386879 -0.33278 0.291897 0.89669
-2.76915 0.314694 0.290706 -0.0557181 0.0457914 -0.997396
-2.94386 0.53401 0.481876 0.719303 0.0490622 0.692962
-2.92519 0.718959 -0.630831 -0.325572 0.272806 0.905306
-2.71475 0.623163 -0.515534 0.358424 -0.191982 -0.913605
-2.92542 0.450988 0.495874 0.288582 -0.172538 0.941781
-2.94975 0.503786 0.731217 -0.401798 -0.0923799 -0.911056
-2.91501 0.92313 -0.573888 -0.0587887 -0.0526632 0.99688
-2.76213 0.917488 -0.394487 -0.448543 0.0275859 0.893335
-2.73278 0.903123 0.443335 -0.309701 0.637221 -0.705715
-2.93722 0.878813 0.509824 -0.251437 0.350159 -0.902312
-2.69098 1.03186 -0.642233 0.590429 -0.298129 -0.750009
-2.8085 1.02009 0.593801 -0.262008 0.418331 -0.869684
-2.74141 1.27155 -0.746618 0.229196 0.144457 -0.962601
-2.75894 1.15739 0.687015 0.216626 -0.25727 0.941746
-2.71501 1.52642 -0.549309 0.0126893 0.382033 -0.924062
-2.91655 1.37174 0.659511 -0.0186283 0.176678 0.984092
-2.94571 1.62802 -0.566929 -0.204029 0.320223 -0.92511
-2.8719 1.62607 0.614232 0.381507 -0.47054 -0.795641
-2.90968 1.90147 -0.711468 0.226954 0.17383 -0.958267
-2.85849 1.89442 -0.415573 0.755899 -0.205642 0.621553
-2.94893 1.75749 0.34569 0.627847 -0.65938 -0.413552
-2.8272 1.80703 0.549037 0.395813 -0.438973 -0.806619
-2.87295 2.05215 -0.635162 -0.316902 0.22083 -0.922392
-2.74705 1.93453 -0.359058 0.449749 -0.306185 0.839033
-2.68724 1.92325 0.335798 0.489595 -0.160701 -0.857014
-2.75996 1.90446 0.62364 0.167019 -0.170183 -0.971155
-2.75957 2.24696 -0.535204 0.300312 -0.305405 0.903627
-2.6678 2.10521 -0.0673373 0.613492 -0.751186 0.243612
-2.89099 2.2367 0.0948516 0.925525 -0.3577 0.124314
-2.73995 2.09023 0.57882 -0.356704 0.0267294 0.933835
-2.87373 2.2614 -0.365039 0.808652 -0.320721 0.493174
-2.88781 2.41515 -0.302065 0.662319 -0.636151 0.395784
-2.77253 2.34957 -0.0590549 -0.365668 0.918429 -0.150914
-2.86927 2.32877 0.2915 0.779495 -0.378133 -0.499402
-2.80969 2.46321 0.541872 -0.533449 0.184526 0.825459
-2.94441 2.54134 -0.319023 0.593804 -0.472863 0.650998
-2.71154 2.69387 -0.0762458 -0.490732 0.785059 -0.377974
-2.8349 2.73868 0.0909107 0.966682 -0.221594 -0.128147
-2.93187 2.56188 0.108105 0.885176 -0.219397 -0.410278
-2.84901 2.74706 0.327313 0.841359 -0.335069 -0.42408
-2.74443 2.86564 -0.159565 0.1314 -0.871647 0.472193
-2.85923 2.77209 0.0837433 0.931057 -0.364319 -0.0200848
-2.68423 2.91984 0.231745 0.157577 0.985587 0.0615473
-2.66671 -0.624839 -0.383333 -0.169157 0.570684 0.803558
-2.59526 -0.484716 -0.214448 0.326666 -0.722483 -0.609349
-2.67663 -0.663335 0.0533154 0.190768 -0.978314 0.0806781
-2.59783 -0.618314 0.200899 0.0813019 -0.81995 0.566632
-2.63563 -0.674302 0.40917 -0.141965 0.647433 -0.748784
-2.67265 -0.258355 -0.433942 -0.114567 0.0647449 0.991303
-2.74142 -0.250017 0.267274 -0.0215372 -0.386895 0.921872
-2.55234 -0.158971 -0.404736 -0.129235 -0.184373 -0.974323
-2.63702 -0.182587 0.433862 -0.171775 0.100185 -0.980029
-2.74331 0.118748 -0.450623 -0.250536 0.026457 0.967746
-2.50173 -0.0379131 0.381402 0.0338538 -0.147876 0.988426
-2.62976 0.143193 -0.413322 0.159179 0.0536977 0.985788
-2.52719 0.259747 0.329335 -0.19873 0.171614 -0.964912
-2.55107 0.483865 -0.429737 -0.18751 -0.017794 0.982101
-2.70891 0.278803 0.303776 0.129642 0.0186699 0.991385
-2.73401 0.571403 -0.379159 0.31936 -0.196381 -0.927062
-2.45284 0.613332 0.300081 0.151154 -0.116787 -0.981587
-2.5028 0.753349 -0.259584 0.260321 0.0618523 -0.963539
-2.55152 0.777456 0.329884 0.222761 -0.180011 -0.95811
-2.71812 0.852792 -0.63045 0.409822 0.00145284 -0.912165
-2.59247 1.07207 -0.378209 -0.49307 0.375697 0.784687
-2.60774 0.975691 0.2519 0.33618 -0.472474 0.814709
-2.45929 0.900602 0.588808 0.223333 -0.132339 0.965717
-2.66851 1.31225 -0.699862 -0.605939 0.164592 0.778298
-2.50025 1.09304 -0.430827 -0.530687 0.356085 0.769139
-2.4597 1.0526 0.483558 0.225046 -0.332682 0.915793
-2.54436 1.17923 0.532966 0.375319 -0.505687 0.776799
-2.48962 1.3499 -0.511522 -0.493554 0.156639 0.855493
-2.53855 1.35418 0.487662 0.542545 0.0111895 0.839952
-2.7162 1.74083 -0.525449 0.0907988 -0.0987868 -0.990957
-2.52434 1.74767 0.477988 -0.39227 -0.000862876 -0.91985
-2.66176 1.74149 -0.542352 0.0365084 0.0100922 -0.999282
-2.52521 1.84865 0.610489 -0.0666243 0.0922197 -0.993507
-2.51504 1.9111 -0.514778 0.044472 0.0800119 0.995801
-2.67531 2.12424 0.520298 0.191595 -0.0995516 -0.976412
-2.72605 2.30181 -0.475008 -0.272363 0.51782 -0.810975
-2.71944 2.26442 -0.374697 -0.427417 0.583276 -0.690727
-2.51327 2.20308 0.493876 -0.046092 -0.20815 -0.97701
-2.52126 2.3186 0.457071 0.14007 0.506584 0.850737
-2.62379 2.30889 -0.651046 -0.0295354 -0.0608305 -0.997711
-2.66276 2.32203 -0.372986 -0.358709 0.651395 -0.668589
-2.66809 2.36156 0.509319 0.775352 -0.127241 -0.618578
-2.50787 2.36257 0.617546 -0.0400457 0.248706 0.967751
-2.63661 2.72687 -0.706166 0.972485 -0.162441 -0.166991
-2.55464 2.59543 -0.427498 -0.0409409 -0.93306 0.357382
-2.46858 2.49487 -0.0900532 0.217558 -0.975444 0.0343159
-2.58217 2.61771 0.144537 0.256063 0.92212 -0.290047
-2.70128 2.48055 0.181481 0.91724 0.138337 -0.373542
-2.64918 2.69423 0.459208 0.340493 -0.544338 -0.766655
-2.56682 2.65742 0.54553 0.138339 0.697434 0.70317
-2.36858 -0.522841 -0.46116 -0.0563099 0.167482 0.984266
-2.5034 -0.539077 -0.301304 0.276783 -0.738088 -0.615319
-2.4793 -0.585521 0.125896 0.883701 -0.436561 -0.168782
-2.5399 -0.655131 0.0681302 -0.571665 0.818103 0.0624984
-2.40279 -0.70638 0.339973 0.862143 -0.0958136 -0.497523
-2.39282 -0.31298 -0.481561 -0.107602 0.420523 0.900879
-2.30351 -0.298853 -0.337058 0.368933 -0.305486 -0.877819
-2.49146 -0.37628 0.301932 0.0949774 -0.335733 0.937157
-2.46562 -0.46056 0.431288 0.121473 -0.23189 0.965128
-2.37885 -0.121889 -0.269505 -0.334454 0.0622517 0.940354
-2.54868 -0.310271 -0.153495 0.159989 -0.733754 -0.66031
-2.49837 -0.312009 0.296391 0.196494 -0.120094 0.973122
-2.27552 -0.222416 0.31085 0.523073 -0.142249 0.840333
-2.54118 0.126003 -0.376595 -0.110731 0.0148603 0.993739
-2.35973 -0.0254527 0.25276 0.38908 -0.161606 0.906918
-2.40635 0.349213 -0.436466 0.230633 0.0103564 -0.972986
-2.46214 0.299399 0.518254 0.17455 0.0831179 -0.981134
-2.47616 0.392801 -0.407249 -0.200173 0.00503726 0.979748
-2.52437 0.4678 0.463452 0.0580864 -0.0732403 -0.995621
-2.51344 0.604299 -0.463878 -0.0806076 0.138955 0.987013
-2.51779 0.527732 0.497648 0.000594851 0.0682623 -0.997667
-2.3078 0.849336 -0.256779 0.242901 0.0271263 -0.969672
-2.53114 0.907996 0.342029 -0.230645 0.0862818 -0.969205
-2.3392 1.00393 -0.33169 0.0831974 -0.231486 -0.969274
-2.25257 1.08682 0.427741 0.0262375 0.337249 0.94105
-2.50392 1.10438 -0.397566 -0.530687 0.356085 0.769139
-2.4233 1.14007 0.543294 0.375319 -0.505687 0.776799
-2.37112 1.52625 -0.500245 -0.39736 0.0593353 0.915742
-2.48897 1.26372 -0.495258 -0.442755 0.204284 0.873061
-2.29469 1.44762 0.252505 0.771489 -0.036041 0.635221
-2.48744 1.47112 0.704072 0.694527 -0.0645989 0.71656
-2.49622 1.55764 -0.584706 0.355301 0.0278532 -0.934337
-2.47443 1.5451 -0.421727 -0.389773 0.0761129 0.91776
-2.32776 1.64436 0.354671 -0.641013 0.280867 -0.714294
-2.43001 1.6293 0.509059 0.575613 -0.390503 0.718455
-2.45834 1.92315 -0.517929 0.168787 0.0437677 0.98468
-2.42149 1.94466 0.662748 -0.175055 -0.195254 0.965004
-2.42372 2.14056 -0.461964 -0.165548 -0.0322414 -0.985675
-2.27058 2.1088 0.711308 -0.155296 0.0289259 0.987444
-2.51034 2.24777 -0.559225 0.116635 -0.289401 0.950075
-2.52656 2.10574 0.568201 0.618747 -0.152033 -0.770738
-2.27247 2.3389 -0.571259 0.0109116 0.691281 -0.722504
-2.52306 2.5359 -0.384034 0.662324 -0.732552 0.157142
-2.38672 2.36582 -0.235437 -0.216314 -0.730411 0.647849
-2.46841 2.40599 0.0756315 0.645979 -0.659619 -0.384205
-2.51365 2.31221 0.293118 0.103006 0.736518 0.668529
-2.47998 2.34462 0.745573 -0.284979 0.114491 0.951671
-2.50128 2.72433 -0.747675 -0.195409 -0.881651 -0.429542
-2.53657 2.70776 -0.258894 -0.391023 -0.709286 0.586528
-2.3297 2.59038 -0.282916 -0.0994089 -0.85862 0.502881
-2.45614 2.6377 -0.131876 -0.284387 -0.947971 0.143094
-2.26014 2.52138 0.1505 0.125477 0.861776 0.491525
-2.33942 2.7256 0.35197 0.488014 0.743559 0.457124
-2.46762 2.49419 0.48074 -0.165135 -0.748228 -0.642562
-2.25148 2.66984 0.050543 0.397328 -0.917481 0.018953
-2.23358 -0.472721 -0.253467 -0.442482 0.833458 0.330995
-2.31238 -0.542023 -0.039564 0.416446 -0.894784 -0.161044
-2.28378 -0.533652 0.319548 -0.576749 0.581662 -0.573612
-2.19058 -0.462476 -0.304481 -0.208527 0.646699 -0.733687
-2.06023 -0.507455 0.0997408 0.495196 -0.821884 0.281581
-2.17617 -0.319463 0.340106 -0.520363 0.45114 -0.725048
-2.09622 -0.0646184 -0.179174 -0.460178 0.336112 0.821745
-2.28605 -0.221849 -0.0489418 0.974817 -0.204054 0.089967
-2.27466 -0.236198 0.292389 0.523073 -0.142249 0.840333
-2.29641 -0.0322474 -0.535976 -0.413445 0.0493413 0.909191
-2.17633 0.0609215 -0.248571 -0.444656 0.187103 0.875942
-2.15677 0.109276 0.16339 0.823137 -0.561138 0.0870061
-2.17407 -0.0709079 0.543571 0.381201 0.114696 -0.91735
-2.05954 0.213502 -0.294266 -0.386917 -0.0238385 0.921806
-2.18367 0.176259 -0.212867 0.601798 0.0362234 -0.797826
-2.12174 0.168602 0.259465 0.0637056 0.0751166 -0.995138
-2.13316 0.334655 0.472987 -0.398688 -0.00226326 -0.917084
-2.26941 0.267806 -0.481747 0.403982 0.0704556 -0.91205
-2.29063 0.392201 -0.199254 0.472809 -0.195958 -0.8591
-2.05162 0.301136 0.541522 -0.496074 -0.169406 -0.851594
-2.31801 0.571824 -0.384872 -0.187313 -0.097928 0.977407
-2.31295 0.594461 0.509779 0.0386761 -0.0826431 -0.995828
-2.18472 0.833478 -0.541218 -0.0465698 -0.00646361 0.998894
-2.15909 0.801432 0.512963 -0.211248 0.0264182 -0.977075
-2.24315 1.10508 -0.419655 -0.0155624 -0.13257 -0.991052
-2.33898 1.07226 0.32011 0.0271529 -0.296935 -0.954512
-2.29096 1.21419 -0.321687 -0.202421 0.167681 0.964836
-2.30827 1.061 0.350953 0.0130676 0.268921 0.963074
-2.23179 1.53617 -0.259637 0.767902 0.0706962 -0.636655
-2.28121 1.48816 0.261338 0.639993 -0.307349 0.704234
-2.24643 1.53146 -0.531215 -0.395293 0.213917 0.893299
-2.13361 1.69546 -0.278107 0.83501 0.37735 -0.400456
-2.34924 1.6011 0.340114 -0.641013 0.280867 -0.714294
-2.32013 1.66283 0.539416 0.357324 -0.417768 0.835338
-2.26633 1.79166 -0.641951 0.300066 -0.323143 -0.897518
-2.24529 1.91135 -0.329815 0.753463 -0.0430994 -0.656076
-2.11642 1.67872 0.325617 0.39008 -0.474131 0.789327
-2.05153 1.77276 0.463687 -0.444682 0.724074 -0.527233
-2.20017 2.11516 -0.685898 -0.148432 -0.159628 -0.975954
-2.28356 1.92961 -0.416482 0.806616 -0.0577809 -0.588244
-2.31011 2.12849 0.322678 0.214191 0.6873 0.694075
-2.10791 2.01621 0.559322 -0.659593 0.283725 -0.696015
-2.17264 2.14441 -0.683833 -0.291274 0.0575096 -0.954909
-2.09599 2.28616 0.716747 0.361244 0.0662302 0.930116
-2.13618 2.52327 -0.567919 -0.12347 -0.751998 0.647498
-2.32919 2.31005 -0.479878 0.0904659 0.470571 -0.877712
-2.32077 2.52276 -0.0901318 0.0395498 -0.995069 0.0909583
-2.25414 2.48417 0.164475 -0.237742 -0.866635 -0.438661
-2.23378 2.45289 0.347251 0.290834 0.616344 0.731803
-2.11153 2.28498 0.501459 -0.264971 -0.787446 -0.556524
-2.11928 2.47408 -0.301887 -0.497708 -0.661562 0.560913
-2.13763 2.60244 -0.132643 0.00476618 0.840608 -0.541623
-2.25465 2.56681 0.310213 0.245691 -0.875939 -0.415171
-2.24755 2.76429 -0.0513939 0.436146 -0.890341 -0.130647
-2.07205 2.65852 -0.0681009 0.127199 0.952545 -0.276548
-2.22312 2.69653 0.21122 0.539019 -0.839757 -0.0653217
-1.89928 -0.316677 -0.271437 -0.52589 0.849401 0.0442386
-1.87356 -0.286634 0.067144 0.483257 -0.865696 -0.130515
-2.08178 -0.268763 0.0815525 0.641284 -0.683647 0.348398
-2.01057 -0.134544 -0.167433 0.218597 -0.173439 -0.960278
-2.02996 -0.0773252 0.305982 0.225413 -0.420379 0.878903
-1.97797 0.331665 -0.161403 -0.140819 0.219994 0.965284
-2.06889 0.324052 0.125266 0.923402 -0.367484 -0.110837
-1.90616 0.374156 -0.275701 -0.208918 0.153298 0.965843
-1.85127 0.487414 -0.0657397 -0.570149 0.531376 0.626553
-1.94381 0.475452 0.3439 0.795045 0.166252 0.583322
-1.96126 0.274783 0.51985 0.855251 -0.0551122 0.515275
-1.88044 0.603815 -0.460768 0.590606 -0.243513 -0.769341
-2.01165 0.565191 -0.300261 -0.306622 0.108618 0.945613
-2.11281 0.748665 0.119575 -0.0702908 0.99615 0.052381
-1.89004 0.697911 0.457905 0.920116 -0.023384 0.390947
-2.03525 0.769034 -0.264919 0.489286 0.131274 -0.862187
-1.93797 0.850951 -0.182622 0.290108 0.951635 -0.101132
-1.91516 0.868966 0.225076 -0.581173 0.792284 -0.185808
-2.04775 0.778038 0.463036 -0.460613 -0.0552961 -0.885877
-1.90694 1.01091 -0.408144 -0.539568 -0.137835 0.830583
-2.02246 0.988265 0.518171 0.0165702 0.0172518 0.999714
-2.10902 1.34707 -0.353207 -0.298168 0.0210218 0.954282
-2.14925 1.29798 0.450543 0.323608 0.184476 0.928034
-1.9173 1.52001 -0.467634 -0.371093 -0.308035 0.876016
-1.99089 1.45897 -0.276612 0.651941 0.452491 -0.608462
-2.11104 1.48401 0.0730271 -0.600356 -0.767013 -0.226416
-2.14652 1.29418 0.0811749 -0.429223 -0.360563 -0.828108
-1.98907 1.5319 0.356238 0.0909441 -0.160702 0.982804
-1.97799 1.60124 -0.309706 0.769817 0.490218 -0.40874
-1.9848 1.63333 -0.34544 -0.538156 -0.482766 0.690887
-2.12269 1.64095 0.0774291 0.777696 -0.625008 -0.0674878
-2.14829 1.70743 0.11946 0.75678 -0.648552 -0.0816345
-1.85969 1.73469 0.307898 -0.254909 -0.00931739 -0.96692
-2.11457 1.7286 -0.458083 -0.497718 -0.230377 0.836184
-2.08598 1.86662 -0.0528646 0.896837 -0.180824 -0.403716
-2.13619 1.80544 -0.0737169 0.996505 0.0468288 -0.0691676
-1.86766 1.78313 0.252428 0.967773 -0.249043 0.0373229
-1.9902 1.78392 0.386176 0.420684 -0.749722 0.510824
-2.0199 2.14652 -0.469665 0.223493 -0.605922 -0.763485
-2.07569 2.04215 -0.232239 0.797747 -0.41896 -0.433674
-1.96527 1.88494 0.307557 0.948486 -0.0823879 0.305918
-2.06333 1.9596 0.680239 -0.545168 0.298766 -0.783282
-2.00442 2.31828 -0.747901 -0.353574 0.340822 -0.871106
-2.02968 2.29748 -0.436126 0.699476 0.447898 -0.556885
-2.05863 2.1472 -0.251175 -0.406473 0.396891 0.822956
-1.9913 2.29904 0.14654 0.364268 0.718065 0.593037
-1.9548 2.29505 0.232699 0.364268 0.718065 0.593037
-1.89533 2.18771 0.293133 0.768534 0.00595602 0.639781
-1.9904 2.26121 0.63863 0.859946 -0.113196 0.497674
-2.09239 2.33859 -0.672105 0.54543 -0.613473 0.571101
-2.09544 2.31124 -0.52753 0.0371677 0.998442 -0.0416275
-1.99158 2.40176 -0.135519 -0.620937 -0.390704 0.67955
-1.98233 2.35242 0.307334 0.514816 0.704356 0.48872
-2.1451 2.36817 0.646515 0.311783 0.631911 0.709563
-1.92972 2.61085 -0.210143 0.105209 0.468896 -0.876965
-2.10665 2.62963 0.25308 -0.620891 -0.778698 -0.0901262
-1.96431 2.67084 -0.13371 0.0569666 0.67754 -0.733276
-1.96236 2.93582 -0.0668464 0.313677 0.051772 0.948117
-1.88596 2.71572 0.338092 0.144562 0.00325955 0.98949
-2.10802 3.1027 -0.330695 -0.265951 -0.851187 -0.452493
-2.1139 3.10385 -0.144648 0.25489 -0.656511 -0.709947
-2.08725 3.06434 0.292162 -0.226218 -0.744548 -0.628071
-1.84832 -0.147418 -0.321009 0.00197252 0.433257 0.901268
-1.6765 -0.0672532 -0.124573 0.886068 -0.357317 -0.29531
-1.71585 -0.21967 0.262526 0.344476 -0.693184 0.633113
-1.72382 -0.0545856 -0.258769 0.78283 -0.576373 -0.234459
-1.88878 -0.0324909 -0.101846 0.235943 0.424905 0.873949
-1.8277 0.0791658 0.321135 -0.538637 -0.0103068 -0.842475
-1.88057 0.170094 -0.314393 -0.133815 -0.086008 0.987267
-1.80903 0.0978336 -0.0508119 0.946734 -0.183188 -0.264835
-1.83888 0.0949879 0.299851 0.573443 0.013092 0.819141
-1.76563 0.466043 -0.0852957 -0.700678 -0.0126543 0.713366
-1.90531 0.386476 0.3031 0.854116 -0.112274 0.507819
-1.76393 0.466477 -0.198098 -0.65285 0.0725634 0.754003
-1.92888 0.687984 0.14908 0.882389 -0.130415 0.452086
-1.83564 0.713372 -0.343452 -0.669765 0.104383 0.7352
-1.85443 0.859898 0.0722052 0.374761 -0.924224 -0.0732397
-1.77144 0.962765 -0.316014 0.707132 0.0700579 -0.703603
-1.82322 0.954077 -0.173474 0.817164 -0.106103 -0.566556
-1.7487 0.91313 0.322103 0.696523 -0.30356 0.650159
-1.72377 1.08961 0.44407 0.559425 -0.0040505 0.828871
-1.94865 1.17687 -0.468853 -0.203152 0.111704 0.972755
-1.69755 1.1976 -0.216576 0.7763 0.269208 -0.569988
-1.82767 1.29455 -0.0780415 0.78031 0.367108 -0.506309
-1.68771 1.27443 0.190716 0.903675 0.37406 0.208448
-1.93311 1.27199 0.431089 0.265934 0.436748 0.859378
-1.78222 1.54574 -0.27508 0.616209 -0.00888458 -0.787532
-1.78606 1.42323 -0.0548923 0.453805 0.837616 0.304073
-1.75854 1.2528 -0.0971847 0.779897 0.350676 -0.518447
-1.72343 1.3929 0.119208 0.86738 0.474242 0.150821
-1.80715 1.42059 0.255803 -0.653135 -0.153938 -0.74143
-1.74484 1.68909 -0.140585 0.781341 0.486885 -0.390446
-1.92203 1.90511 -0.061955 0.859449 -0.476516 -0.185149
-1.73918 1.79168 0.253086 0.846453 0.130185 0.516304
-1.71398 1.93927 -0.502508 -0.304568 -0.535312 0.787832
-1.75254 2.09017 -0.333209 0.290399 -0.955373 0.0541406
-1.84426 2.14445 0.0732761 0.951645 -0.287731 -0.107623
-1.81964 1.94543 0.20434 0.745505 -0.353695 -0.564909
-1.71434 1.85223 0.290487 0.862654 0.199863 0.464633
-1.85743 2.19385 -0.309501 0.572931 0.712761 -0.404625
-1.70912 2.11585 -0.312321 0.290399 -0.955373 0.0541406
-1.87139 2.31692 -0.102037 -0.472184 -0.742338 0.47537
-1.7295 2.31092 0.223296 0.832326 -0.490052 0.259001
-1.79176 2.33605 0.490285 0.785649 -0.23156 0.573704
-1.68889 2.28402 -0.300227 0.339973 0.513624 -0.787787
-1.77041 2.47366 0.0295665 0.147376 -0.655388 -0.740774
-1.65097 2.39601 0.244059 0.696639 -0.550491 0.460059
-1.68207 2.63515 -0.289928 -0.13276 -0.0898008 -0.987072
-1.90568 2.7223 0.336943 0.126564 -0.159413 0.979065
-1.65947 2.70818 -0.200936 0.123736 -0.308895 -0.943013
-1.6501 2.73546 0.260664 0.438257 -0.170234 0.882582
-1.92715 3.09664 -0.260336 0.209374 0.685997 -0.696829
-1.67541 2.98295 -0.0379449 0.707546 -0.235564 -0.666249
-1.67899 2.94164 0.268484 -0.315658 -0.66405 -0.677788
-1.6588 -0.123279 -0.16081 0.830982 -0.425794 -0.358005
-1.746 -0.053126 0.148249 0.793728 -0.589431 0.150224
-1.59762 -0.153782 0.174786 0.997658 0.0299171 0.0615064
-1.6501 0.165831 -0.347336 0.352883 0.0971729 -0.930608
-1.6485 0.263696 -0.105545 0.767063 -0.0248551 -0.641091
-1.65431 0.235387 0.137162 0.842643 0.170214 0.510862
-1.47762 0.330182 -0.0773785 0.98656 -0.0737563 -0.145806
-1.6171 0.34895 -0.111133 0.640229 -0.0605042 -0.765797
-1.64862 0.394466 0.134559 0.837149 0.040111 0.545502
-1.49915 0.53588 -0.0741861 0.893442 -0.17652 -0.41304
-1.59336 0.737362 -0.124252 0.724152 0.0381765 -0.688583
-1.66052 0.735673 0.0918354 0.740628 -0.261769 0.618827
-1.66566 0.691359 -0.163443 -0.645373 -0.0254558 0.763443
-1.67529 0.929752 -0.040717 0.953895 -0.210097 -0.214345
-1.61268 0.726956 0.109657 0.715433 -0.192636 0.6716
-1.52032 0.943678 -0.061047 0.828235 0.0171531 -0.560118
-1.49844 0.943621 -0.0706857 0.828235 0.0171531 -0.560118
-1.56964 0.959983 0.180938 0.723569 -0.3916 0.568417
-1.6622 1.30324 -0.0996146 0.835755 0.279481 -0.472655
-1.46866 1.28919 0.0895586 0.798602 0.544916 -0.255543
-1.49552 1.20763 0.170916 0.931354 0.226283 0.285263
-1.69851 2.27993 -0.19236 0.927372 0.0212497 -0.373537
-1.55446 2.25398 -0.141466 0.929397 -0.368299 0.0240278
-1.68246 2.28897 0.177044 0.832326 -0.490052 0.259001
-1.71608 2.61995 -0.0555074 -0.596885 0.470173 0.650127
-1.53391 2.72644 -0.0890199 0.709861 -0.53961 -0.45268
-1.69705 2.46434 0.0661024 0.632777 -0.634341 -0.444076
-1.5255 2.82363 -0.170513 -0.613815 0.185309 0.767393
-1.4632 2.79825 0.0505206 -0.218166 -0.798134 -0.561593
-1.57977 2.89605 -0.280354 -0.0524102 -0.0976536 0.993839
-1.52531 2.85188 0.200536 -0.0936633 -0.512969 -0.853282
-1.50038 3.0843 -0.100405 0.66357 -0.0167008 -0.747928
-1.68678 3.25764 -0.0626079 0.254868 0.685714 -0.681791
-1.54722 3.34758 0.238961 0.37456 0.847703 -0.375639
-1.26771 2.63952 -0.144816 -0.0436408 -0.974918 -0.218242
-1.39836 2.73178 0.0828356 -0.0248305 -0.990886 -0.132393
-1.49442 2.50908 0.146123 0.71607 -0.463228 0.522172
-1.46682 2.8553 -0.222556 -0.120132 0.00660833 0.992736
-1.40415 2.70336 0.207263 0.240092 -0.698389 -0.674247
-1.53363 2.95051 -0.218008 0.0228796 0.184642 -0.982539
-1.34429 3.13867 0.0834701 -0.495102 -0.171623 0.851716
-1.51848 3.10397 -0.133133 0.552636 0.115788 -0.82534
-1.47446 3.19698 -0.0699561 0.161213 0.555508 -0.815734
-1.31047 3.26777 0.129023 0.416174 -0.050645 -0.907874
-1.056 2.5452 -0.235706 0.070143 0.141411 -0.987463
-1.26686 2.74139 0.0948275 0.198717 -0.946373 -0.254734
-1.07685 2.59452 0.323275 0.0802512 -0.607476 -0.790274
-1.20176 2.78573 -0.291409 0.0361314 -0.288247 -0.956874
-1.06822 2.76462 -0.120904 -0.18476 0.974127 0.130158
-1.21863 2.90876 0.140082 0.371896 0.0450935 -0.927178
-1.19512 2.89971 -0.131495 -0.00373288 -0.423222 -0.906018
-1.10443 3.09131 0.238485 0.299242 0.147325 -0.942735
-1.05325 3.17106 -0.255635 0.193617 -0.128467 -0.97263
-1.26675 3.19023 -0.122097 -0.60233 0.780436 0.167687
-1.21974 3.21575 0.325219 -0.110438 -0.0246628 0.993577
-1.10289 3.33145 -0.312501 0.733359 0.657465 -0.172984
-1.07697 3.48027 0.0632591 0.560595 -0.820096 -0.114787
-1.09026 3.47252 0.242485 -0.399777 -0.208097 -0.892678
-0.88465 2.88346 -0.165331 -0.0450285 0.159815 -0.986119
-1.06369 2.78101 0.116515 -0.423186 0.811005 -0.403961
-1.0332 2.66897 0.276148 -0.0686265 0.782967 0.618267
-0.900834 2.93662 -0.165357 0.302576 0.191966 0.933594
-0.991441 3.12208 0.27061 -0.0751482 -0.071344 0.994617
-1.00998 3.3007 -0.120098 -0.67776 0.415941 -0.606328
-0.986455 3.12289 0.152048 0.289784 -0.461812 0.838304
-1.01309 3.44041 -0.328777 -0.17522 0.533655 -0.827352
-1.00326 3.41218 0.120201 -0.590115 0.798196 -0.121031
-0.934449 3.42053 0.318327 0.143703 0.242522 0.959444
-0.838121 2.84812 -0.15503 0.151112 -0.332015 -0.931091
-0.722343 2.7164 -0.138691 -0.353077 0.918284 -0.179139
-0.729561 2.74996 0.0967646 -0.340584 0.939869 0.0254724
-0.852308 3.10317 -0.147091 -0.232456 -0.377382 0.896408
-0.783648 2.85104 -0.0917437 -0.0607998 0.987227 -0.147259
-0.902485 2.98492 0.0983329 0.407229 -0.777703 0.478897
-0.887518 3.17495 -0.188842 0.50788 -0.0379573 -0.860591
-0.728296 3.07038 0.211333 0.132043 0.405526 -0.904496
-0.739453 3.52591 -0.0617896 -0.448166 0.855726 -0.258611
-0.763966 3.32768 0.0449409 0.829979 -0.281751 -0.481406
-0.912658 3.40436 0.253352 0.129253 0.384234 0.914143
-0.90931 3.56201 0.0537955 0.215542 -0.976365 -0.0159102
-0.600096 2.8669 -0.334775 -0.286866 0.0525005 -0.956531
-0.57565 2.93424 0.110296 0.360488 0.617184 -0.69938
-0.508686 2.93707 0.347458 -0.117948 0.344913 -0.931195
-0.710674 3.1494 -0.168281 -0.0494993 -0.297869 0.953323
-0.639606 3.15698 0.258167 0.00977685 -0.0897859 0.995913
-0.503765 3.54165 -0.221661 0.285642 0.77579 -0.562635
-0.655354 3.32996 0.117312 0.166321 0.279212 -0.945716
-0.507347 3.7379 -0.0770773 0.0270872 -0.999535 -0.0139799
-0.73217 3.56165 -0.134626 0.311925 -0.662138 0.681378
-0.631753 3.62283 0.146103 -0.372863 0.905997 0.200355
-0.508587 2.94004 -0.284212 -0.593945 0.803899 0.0312492
-0.508723 2.91038 0.138836 -0.00820246 0.715349 -0.698719
-0.346522 2.93817 0.200466 -0.180907 -0.658403 -0.730601
-0.450126 3.29982 -0.299002 -0.119504 0.0959591 0.988186
-0.391609 3.16443 0.0510629 -0.185877 0.866809 0.4627
-0.342776 3.25352 -0.0777393 0.795027 0.231927 -0.560483
-0.460373 3.42541 0.207728 -0.261428 -0.0828078 0.961664
-0.362107 3.67347 -0.338002 0.109998 -0.707572 0.698027
-0.258285 3.54745 0.147826 -0.0666282 0.129059 -0.989396
-0.47474 3.70721 0.140498 -0.451884 0.803764 0.386994
-0.29491 3.12081 -0.253076 0.461886 -0.57136 -0.678387
-0.224351 2.96236 0.050481 0.300748 0.792648 0.53034
-0.0833289 3.04737 0.0914255 -0.381257 -0.845348 0.374206
-0.146694 3.28465 -0.145091 0.626251 -0.363305 0.689797
-0.174812 3.05853 0.249581 0.0104819 0.144274 -0.989482
-0.137713 3.39758 -0.083754 0.704829 -0.681429 0.197155
-0.285215 3.35499 0.277796 -0.022983 -0.18665 0.982158
-0.0679838 3.58231 -0.323841 0.0597057 -0.0916995 0.993995
-0.213844 3.54216 0.0345234 -0.146327 0.907777 0.393103
-0.294737 3.71709 0.311053 -0.0845054 -0.194314 -0.977293
0.0159481 2.97017 -0.265394 0.539544 0.483854 0.689041
0.0839591 2.90063 -0.142101 -0.0288649 -0.860568 -0.508517
-0.0249953 2.91001 0.156504 -0.171881 0.699796 -0.693356
-0.00635723 3.24108 -0.293891 0.157791 -0.0974608 0.982651
0.0460236 3.30467 0.146377 0.316563 0.630091 0.709065
-0.131785 3.32412 0.274779 0.356083 0.00251161 -0.934451
0.0485183 3.30032 -0.23007 0.249197 -0.153684 0.956181
0.0342557 3.40567 0.319515 -0.108828 0.349333 0.930657
0.1348 3.68349 -0.192946 0.34378 -0.622729 0.702868
0.0313022 3.61573 -0.0771917 0.50315 -0.599212 0.622724
-0.0226234 3.65763 0.118186 -0.278232 0.857543 0.432674
0.286853 3.03913 0.0793167 -0.273764 0.46729 -0.840651
0.136263 3.11719 -0.326098 -0.104046 0.037952 -0.993848
0.223116 3.3462 -0.0844 -0.115187 -0.76579 -0.632691
0.260438 3.13582 0.235665 -0.219861 0.477245 -0.850822
0.234154 3.46442 -0.269767 0.0675451 -0.065565 0.99556
0.288459 3.34413 0.241192 -0.058555 0.747953 -0.661164
0.344609 3.48589 -0.273002 0.172634 -0.00565283 0.98497
0.0578849 3.54302 -0.0637708 0.594977 -0.534167 0.600556
0.119849 3.73933 0.146163 0.632747 -0.706934 -0.316031
0.33957 3.82601 0.0931861 -0.170217 0.898878 -0.403787
0.537788 3.21496 -0.221671 0.29638 0.629892 0.717911
0.503561 3.23031 -0.0433656 0.0275591 0.867243 0.497121
0.358927 3.067 0.169597 -0.213964 0.19072 -0.958042
0.365401 3.34742 -0.257122 -0.106953 0.151114 0.982713
0.444201 3.30443 0.102497 -0.12549 0.871629 -0.473831
0.449515 3.6045 -0.271862 0.0674079 -0.1359 0.988427
0.525098 3.73405 -0.0882881 -0.1941 -0.79754 0.571187
0.266172 3.4574 0.347131 0.0121713 -0.144496 -0.98943
0.260342 3.72967 -0.170176 0.240817 -0.697615 0.674789
0.385941 3.89972 0.139713 -0.042287 -0.91071 0.410876
0.314747 3.92106 0.180942 -0.0445053 -0.907176 0.418392
0.623465 3.06343 -0.0688681 -0.211464 0.943073 -0.256703
0.690811 3.20614 -0.0871786 -0.27744 0.936452 -0.214674
0.603894 3.30695 0.0672566 0.325179 -0.944768 -0.0408951
0.688243 3.50033 -0.276244 -0.13026 0.0863757 0.98771
0.617799 3.28258 0.266848 -0.0774868 0.741922 -0.665994
0.598964 3.50831 -0.277468 -0.106465 0.090879 0.990155
0.731997 3.66835 -0.145275 0.173757 0.811691 -0.557643
0.668105 3.54172 0.159024 -0.516104 0.45926 0.722991
0.527217 3.70079 -0.279586 0.0812546 0.561611 -0.823402
0.477367 3.7045 -0.144599 -0.0801753 -0.731971 0.676602
0.633287 3.73296 0.127775 0.491217 0.868871 0.0613923
0.727495 3.22764 -0.276493 -0.16103 -0.344917 -0.924717
0.749585 3.10711 -0.0903128 -0.377834 0.798391 -0.468843
0.830344 3.22548 0.31454 0.302383 0.335359 -0.892244
0.895407 3.5283 -0.168475 -0.0777678 -0.464963 0.881908
0.886339 3.41157 0.266216 0.175068 -0.517619 -0.837509
0.837526 3.45289 -0.108921 0.852084 -0.474706 0.220471
0.83908 3.51332 0.319237 -0.205407 0.465305 0.860987
0.914853 3.68739 -0.058232 -0.01088 0.591349 -0.806342
0.817497 3.8536 -0.0645711 -0.274716 0.961322 0.0197601
0.888137 3.72219 0.083001 -0.563853 0.794237 0.226399
0.918424 3.1376 -0.327967 -0.258423 0.136916 -0.95628
1.00266 3.18331 -0.0460587 0.0545589 -0.989464 -0.134109
1.00401 3.25172 0.333499 -0.142406 0.177852 -0.973699
0.961106 3.43589 -0.201709 0.0158405 -0.340867 0.939978
0.899057 3.4847 0.293517 -0.128084 0.569474 0.811969
1.13536 3.59087 -0.192753 0.366095 -0.466352 0.805289
1.14461 3.47179 0.306786 0.334071 0.284611 0.898551
1.13722 3.93016 -0.108287 -0.248038 0.926439 -0.283174
1.02603 3.70152 -0.06857 0.673199 -0.658489 0.336445
1.08539 3.85941 0.0739028 -0.0857266 0.83977 -0.536131
1.12053 3.22677 -0.348398 -0.169241 0.247896 -0.953889
1.30009 3.1259 0.148996 0.122764 0.665428 -0.736298
1.19228 3.06895 0.345789 -0.222069 0.0137686 -0.974934
1.24517 3.3259 -0.260349 -0.0878299 -0.188974 -0.978046
1.06616 3.42991 0.166947 0.904754 0.4 0.146354
1.05326 3.50003 -0.188902 -0.0194925 -0.553417 0.832676
1.19017 3.68683 0.0773676 -0.219763 0.704864 0.674441
1.27111 3.83379 -0.334952 0.0420749 0.34564 -0.937424
1.19317 3.87765 0.136363 -0.0309565 0.857735 -0.513159
1.14436 3.80509 0.111393 -0.329321 0.362961 0.871669
1.27091 3.3402 -0.265936 -0.106889 -0.205869 -0.972724
1.31804 3.14936 0.0374915 -0.105122 0.963683 0.24549
1.28606 3.13711 0.176516 0.122764 0.665428 -0.736298
1.39487 3.52319 -0.280414 -0.0772916 -0.311223 0.947189
1.2708 3.43501 0.175296 0.183743 0.368781 0.911175
1.51953 3.68221 -0.233113 -0.098772 -0.538545 0.836788
1.54574 3.67368 0.134628 0.636646 0.7482 0.186758
1.51659 3.82742 -0.127078 -0.000135465 0.816875 -0.576815
1.51728 3.68447 -0.05191 0.0652751 -0.961462 0.267075
1.30699 3.91974 0.306464 0.0413045 0.99901 -0.0164995
1.66664 3.3049 -0.325467 0.418106 0.67092 0.612416
1.53381 3.22162 0.0518268 -0.430151 0.790584 -0.435828
1.56054 3.28089 0.284736 -0.169184 0.337766 -0.9259
1.5861 3.40262 -0.343212 -0.0280035 -0.477932 0.87795
1.53911 3.27613 0.308778 -0.254443 0.476973 -0.841282
1.57679 3.53767 -0.245977 -0.192681 0.516862 -0.834103
1.59277 3.53647 0.237046 -0.501538 0.299814 0.811524
1.50367 3.69356 -0.0647626 0.114723 0.832619 -0.541834
1.47602 3.94348 0.0682631 -0.204262 -0.961625 0.183177
1.58718 3.7568 0.348501 0.627329 0.775541 0.0706751
1.90022 3.18199 -0.126533 0.37289 0.906486 0.198081
1.93661 3.14462 -0.104706 -0.338094 -0.88552 -0.318665
1.84415 3.20152 0.100615 -0.539263 -0.339981 -0.77046
1.74372 3.40129 -0.0631631 0.657905 0.685354 -0.312172
1.83449 3.36399 0.0918157 0.23555 0.904948 -0.354381
1.71693 3.55017 -0.0842177 0.264277 -0.695372 -0.668293
1.69934 3.53619 0.32722 0.886647 -0.448347 0.113326
1.86167 3.8367 -0.191802 -0.15554 0.95687 0.245371
1.91774 3.80954 -0.0812808 -0.38951 -0.59061 -0.706726
1.6563 3.87302 0.083849 0.371583 0.867723 0.330124
1.87913 3.11102 -0.200947 -0.621623 -0.759059 -0.193427
2.03763 3.03364 -0.00640124 -0.23351 -0.919636 -0.31582
1.96182 2.93761 0.223012 0.807089 0.314179 -0.499898
2.00031 3.3071 -0.408242 0.206419 0.307361 0.928935
2.01592 3.11713 0.0141482 -0.23351 -0.919636 -0.31582
1.99974 3.11049 0.319109 -0.530332 -0.31432 0.78737
1.95485 3.32001 -0.299826 0.181993 0.498843 0.847369
2.0579 3.44015 -0.0597859 0.732209 0.313127 0.604831
1.86093 3.48353 0.199033 -0.506196 -0.220868 -0.833656
2.10856 3.28045 0.299072 -0.456033 -0.16891 0.873787
2.02943 3.68739 -0.355893 0.908327 0.0191377 0.417824
1.88616 3.65243 -0.207983 -0.426194 -0.190384 -0.884371
1.89691 3.57447 0.128274 -0.090824 -0.786713 -0.610602
1.89746 3.58601 0.422907 0.162095 0.508224 -0.845833
2.01471 3.8618 -0.345199 0.847126 0.125763 0.516295
1.9108 3.76083 -0.216713 -0.485286 -0.46102 -0.742939
1.9847 3.72361 -0.0514895 0.199804 -0.853895 -0.480564
2.02397 3.74254 0.330168 -0.293769 0.931055 -0.216416
2.14264 3.8306 0.463928 -0.410413 0.859134 -0.305697
2.32226 2.85723 -0.281644 -0.195321 -0.91399 -0.355629
2.10602 3.02758 -0.00348818 -0.45285 -0.882705 -0.125531
2.12315 2.88085 0.226844 0.0418148 -0.982658 0.180649
2.0581 3.206 -0.422647 -0.070774 -0.752841 -0.654387
2.19545 3.1341 -0.328764 0.299507 0.527644 0.794913
2.05594 3.28178 -0.105099 -0.278416 0.95777 -0.0718428
2.19954 3.26724 0.0739571 -0.347236 0.927844 -0.136133
2.30076 3.15602 0.25878 0.0549897 -0.653375 0.755035
2.08892 3.54878 -0.527298 -0.216593 0.0372323 -0.975552
2.31708 3.27709 0.423361 0.0390193 -0.48899 -0.871416
2.05679 3.4905 -0.405029 -0.538546 -0.125815 -0.83315
2.23928 3.54 -0.222097 0.178076 0.642021 -0.74572
2.27511 3.49295 0.0767745 0.0451212 -0.344073 -0.937858
2.20572 3.74315 0.48072 -0.391384 0.669105 -0.631757
2.18083 3.92896 -0.475412 -0.373628 0.328532 -0.86745
2.05704 3.936 -0.340632 -0.395262 0.899055 0.188329
2.27899 3.72422 0.140558 0.422964 -0.87779 0.224913
2.23603 3.70355 0.263779 -0.306468 0.85303 -0.422395
2.20746 3.9247 0.531355 -0.238504 0.928593 -0.284308
2.51747 3.06581 -0.313945 -0.146063 0.71924 0.679234
2.46184 2.98844 0.0182007 -0.0209904 -0.998612 0.048314
2.44065 3.07634 0.305934 -0.154566 0.925755 -0.34509
2.30667 3.23024 -0.410982 0.0753291 -0.204147 -0.976038
2.29927 3.26417 -0.129543 -0.631347 0.0279442 -0.774997
2.30144 3.08913 -0.0648954 0.104878 0.986396 -0.126586
2.52417 3.15798 0.0855428 -0.337822 -0.821277 0.459762
2.42009 3.08581 0.356383 -0.175997 0.844818 -0.50528
2.43689 3.45199 -0.329579 0.163363 -0.00664642 -0.986544
2.35826 3.50395 0.303645 -0.00668867 -0.125707 0.992045
2.45756 3.62534 -0.322077 0.857751 0.113412 0.5014
2.52104 3.46489 -0.261958 0.508027 -0.322493 0.798691
2.41859 3.52802 0.0529857 0.974453 -0.153164 0.164263
2.27496 3.6819 0.542641 -0.391384 0.669105 -0.631757
2.46423 3.88142 -0.478381 -0.359083 -0.907425 -0.218263
2.39732 3.91736 -0.0973762 0.24645 0.968936 -0.0206061
2.53188 3.90936 0.134863 -0.211517 0.97337 0.0883874
2.49659 3.88132 0.0901839 0.376114 -0.875666 -0.302898
2.48434 3.84029 0.250464 -0.174579 0.979947 -0.0960561
2.72272 2.94043 -0.0579056 0.0431412 0.99831 0.038936
2.60236 3.12556 0.0335134 0.0794273 -0.941094 0.328685
2.71417 2.98699 0.339308 0.0178467 -0.867362 0.497357
2.71047 3.3363 -0.275861 -0.410664 0.220866 0.884632
2.55434 3.27517 -0.084315 0.968926 0.16969 -0.179967
2.58139 3.08037 0.0478189 0.0295645 -0.98068 0.19337
2.58236 3.14808 0.194939 0.648827 -0.508174 0.566377
2.48955 3.132 0.523834 -0.238748 -0.235277 -0.942149
2.49534 3.26808 -0.437492 -0.374395 0.270894 -0.886817
2.66226 3.37396 0.255208 -0.488829 -0.304287 0.817592
2.67719 3.67689 -0.452907 0.0775448 0.445064 0.892135
2.59126 3.47797 -0.231249 -0.464955 0.550192 -0.693618
2.48468 3.49354 0.221276 -0.222406 -0.0448078 0.973924
2.67974 3.53683 0.435904 -0.38246 0.100595 0.91848
2.56403 3.84158 -0.509978 0.092898 0.793919 0.600885
2.59345 3.76722 -0.251165 -0.271996 -0.907583 0.31986
2.5346 3.75054 -0.101562 0.130768 -0.871107 0.473363
2.492 3.74702 0.0505661 0.598753 -0.800363 0.0302374
2.73412 3.90204 0.253588 0.17952 0.888799 0.421674
2.7418 3.1023 -0.108436 0.194488 -0.955102 -0.223504
2.65123 2.9781 -0.109668 0.264854 -0.963191 -0.0459956
2.85958 3.10689 0.21771 -0.0322493 -0.902512 0.429456
2.71548 3.17528 -0.465545 -0.185098 0.438922 0.879253
2.91956 3.16718 -0.0775161 -0.196575 0.961809 0.190478
2.91405 3.12922 -0.0472583 -0.196575 0.961809 0.190478
2.70596 3.31504 0.262869 0.066774 0.526997 -0.84724
2.7002 3.28657 0.253802 0.066774 0.526997 -0.84724
2.82983 3.47863 -0.517075 -0.104812 0.0130315 0.994407
2.94628 3.28619 0.435937 0.00137344 -0.450686 0.892682
2.81496 3.47323 -0.356982 -0.0266875 -0.191574 0.981115
2.74238 3.64872 -0.349142 -0.0807356 0.451849 0.888434
2.72809 3.66252 0.346286 -0.350233 0.206987 0.913506
2.81899 3.63797 0.481757 -0.37732 0.226865 0.897865
2.81541 3.88175 -0.469834 0.0274846 0.80771 0.588939
2.89036 3.65495 -0.228815 0.0750416 0.807502 0.585072
2.80759 3.71013 0.141773 -0.308579 -0.936842 -0.164639
2.68059 3.84288 0.126372 -0.0841854 -0.993313 0.0790082
2.77843 3.85596 0.309439 -0.0840807 0.77754 0.623187
2.87254 3.03902 -0.105496 -0.0892249 0.901294 0.42392
3.0347 3.01329 0.133761 0.125085 -0.950648 0.283941
3.10104 3.10554 0.315826 0.469714 -0.774336 0.423996
2.9654 3.24815 -0.253408 -0.276412 -0.72684 -0.628729
2.99848 3.2828 -0.205436 0.165391 0.383379 0.908662
2.98339 3.25993 0.129841 -0.107989 -0.948176 0.298831
3.13296 3.21583 0.163274 0.577973 -0.801474 0.153578
2.90102 3.3217 0.497718 0.021934 -0.369041 0.929154
3.11691 3.31643 -0.410417 0.0508218 0.581043 0.812285
3.03424 3.26828 0.263912 -0.119067 -0.891681 0.436724
3.12253 3.74025 -0.347026 -0.121213 0.746849 0.653853
2.88597 3.6004 -0.131184 -0.0186073 -0.731984 0.681068
2.90712 3.69969 0.30466 -0.083155 0.779551 0.620794
3.06216 3.66709 0.511453 0.0155548 -0.398143 -0.917191
2.90207 3.92371 -0.511025 0.0164338 -0.676835 -0.735951
2.86714 3.66493 -0.192859 -0.0896843 0.830053 -0.550426
2.91336 3.78452 -0.0852288 -0.192185 -0.978542 0.0742996
3.09792 3.69737 0.275307 0.19386 0.962704 0.188733
3.12411 3.70584 0.408777 0.0723177 0.885462 0.45905
3.16771 3.00792 -0.13138 -0.480383 -0.817244 -0.318345
3.33043 2.90151 -0.0449993 -0.168633 -0.983443 -0.0663486
3.06569 3.08489 0.111219 -0.258683 -0.917942 0.300775
3.311 3.31721 -0.418869 -0.145632 -0.405367 -0.902479
3.13957 3.23652 -0.0828876 0.904577 -0.388775 0.174913
3.19818 3.0745 -0.0832701 0.378521 0.921998 -0.081499
3.29021 3.2772 0.181906 0.246207 0.100366 -0.964007
3.13241 3.29566 0.268461 -0.477615 0.475715 -0.738633
3.31723 3.42024 -0.545783 -0.013272 0.12519 0.992044
3.2187 3.49402 0.357809 0.201717 -0.302304 0.931624
3.08417 3.62058 -0.416162 -0.190444 -0.393932 -0.899193
3.19276 3.60175 -0.0831173 -0.302789 0.941126 -0.150338
3.25615 3.69214 0.235523 -0.220495 -0.974862 0.0320436
3.3437 3.67161 0.362797 0.339031 0.928739 0.150004
3.07723 3.92525 -0.527157 -0.0232611 -0.47745 -0.878351
3.16385 3.67048 -0.323653 0.295152 -0.33539 0.89465
3.27238 3.75217 -0.0039325 -0.0220308 0.999632 0.0158569
3.25124 3.79053 0.249892 -0.0563173 -0.997715 -0.0373199
3.12443 3.67413 0.424032 -0.0455608 -0.21517 -0.975513
3.27546 2.92394 -0.234958 -0.0723569 -0.395746 -0.915505
3.51317 2.94792 -0.0397909 -0.151063 0.986195 0.0678265
3.49281 2.9741 0.176401 -0.0358272 -0.858201 0.512063
3.34808 3.15473 -0.293346 0.0701094 0.557378 0.827293
3.29117 3.07375 0.329964 0.0982017 0.698682 -0.708661
3.53356 3.49497 -0.48543 -0.0341812 0.0244 0.999118
